2.4230494499 0.1271414310 0.6322920918
2.4263367653 0.1198502406 0.6330122948
2.4257233143 0.1123610139 0.6327722073
2.4299361706 0.1050856262 0.6337324977
2.4302470684 0.0976301879 0.6337324977
2.4305350780 0.0901738405 0.6337324977
2.4317705631 0.0827495009 0.6339725256
2.4223098755 0.0749897063 0.6315719485
2.4312620163 0.0677999705 0.6337324977
3.9989202023 1.6717298031 0.9975197911
3.9101724625 1.5925226212 0.9725312591
3.8951261044 1.5724817514 0.9677508473
3.8781814575 1.5518232584 0.9625358582
3.8684058189 1.5341615677 0.9590591788
3.8503820896 1.5133619308 0.9536269307
3.8486399651 1.4990626574 0.9521058798
3.8459355831 1.4844369888 0.9503675103
3.8440895081 1.4701906443 0.9488465190
3.8476691246 1.4580444098 0.9486292005
3.8502964973 1.4455471039 0.9481946230
3.8519685268 1.4327070713 0.9475427270
3.8572618961 1.4212200642 0.9477600455
3.8625209332 1.4097141027 0.9479773045
3.8704996109 1.3991844654 0.9488465190
3.8784501553 1.3886190653 0.9497156739
3.8909721375 1.3796486855 0.9516713023
3.8924236298 1.3667349815 0.9510194063
3.8984422684 1.3554277420 0.9514539838
3.8988904953 1.3421905041 0.9505848289
3.9029898643 1.3302226067 0.9505848289
3.9079775810 1.3185540438 0.9508021474
3.9138560295 1.3071765900 0.9512367249
3.9298965931 1.2991446257 0.9540615082
3.9440689087 1.2904196978 0.9564517140
3.9507954121 1.2792152166 0.9571035504
3.9621381760 1.2694702148 0.9588419199
3.9771800041 1.2608473301 0.9614493847
3.9884808064 1.2509758472 0.9631877542
2.5005481243 0.5783398747 0.6040048599
2.5013589859 0.5704486966 0.6037876010
2.4964308739 0.5612741113 0.6022665501
2.4933760166 0.5525572896 0.6011800766
2.4912447929 0.5440726876 0.6003109217
2.4852678776 0.5347855091 0.5985726118
2.4811673164 0.5259447098 0.5972688198
2.4799027443 0.5177320838 0.5966169834
2.4709618092 0.5079609752 0.5942267776
2.4763355255 0.5011516809 0.5950959325
2.4807333946 0.4941236079 0.5957477689
2.4745743275 0.4850097299 0.5940094590
2.4760506153 0.4774155617 0.5940094590
2.4755856991 0.4694534838 0.5935748816
2.4808526039 0.4625713527 0.5944440365
2.4793796539 0.4544305503 0.5937921405
2.4798014164 0.4466489255 0.5935748816
2.4840438366 0.4395486712 0.5942267776
2.4796102047 0.4309237897 0.5929229856
2.4645628929 0.4205259085 0.5892290473
2.4504377842 0.4103854895 0.5857523680
2.4353106022 0.4001776278 0.5820584297
2.4095435143 0.3883596361 0.5759742856
2.4010820389 0.3794433177 0.5738013387
2.3906590939 0.3702841103 0.5711938739
2.3888888359 0.3625090420 0.5705419779
2.3919208050 0.3554649949 0.5709765553
2.3987958431 0.3489672244 0.5722802877
2.3979222775 0.3413313627 0.5718457103
2.4047589302 0.3347796500 0.5731495023
2.4048075676 0.3272688985 0.5729321837
2.4077355862 0.3201465309 0.5733667612
2.4222583771 0.3145156801 0.5764088631
2.4261171818 0.3074505031 0.5770606995
2.4415802956 0.3017996848 0.5803201199
2.4483094215 0.2950073183 0.5816238523
2.4579281807 0.2885174453 0.5835794806
2.4704394341 0.2823033035 0.5861869454
2.4742043018 0.2750458717 0.5868388414
2.4546566010 0.2652547359 0.5822757483
2.4360430241 0.2556879222 0.5779299140
2.4319605827 0.2477192432 0.5768434405
2.4327089787 0.2402569205 0.5768434405
2.4237179756 0.2318643332 0.5746704936
2.4146981239 0.2235291898 0.5724976063
2.4134280682 0.2159462869 0.5720630288
2.4062993526 0.2078701407 0.5703246593
2.4049801826 0.2003250122 0.5698900819
2.3939075470 0.1920110732 0.5672826171
2.3954584599 0.1847406626 0.5674998760
2.3969874382 0.1774625480 0.5677171946
2.3965470791 0.1700389236 0.5674998760
2.4019267559 0.1630153209 0.5685863495
2.4131305218 0.1563380063 0.5709765553
2.4135987759 0.1489338875 0.5709765553
2.4159932137 0.1416423172 0.5714111328
2.4212894440 0.1344994009 0.5724976063
2.4216907024 0.1270703524 0.5724976063
2.4269437790 0.1198801175 0.5735840797
2.4282751083 0.1124788076 0.5738013387
2.4315345287 0.1051544920 0.5744532347
2.4376976490 0.0979283154 0.5757569671
2.4448146820 0.0907013416 0.5772780180
2.4519102573 0.0834316239 0.5787990689
2.4004454613 0.0743163154 0.5672826171
3.9965753555 -1.2248691320 0.9631877542
3.9983928204 -1.2388585806 0.9644914865
3.9990909100 -1.5699577332 0.9890454412
3.9888107777 -1.5800620317 0.9877416492
3.9848508835 -1.5926544666 0.9879589677
3.9969747066 1.6861588955 0.8920142055
3.9876487255 1.6678335667 0.8889064789
3.9936528206 1.6559673548 0.8891007304
3.9851045609 1.6381142139 0.8861871958
3.9892029762 1.6255103350 0.8859929442
3.9732506275 1.6048160791 0.8815255761
3.9599409103 1.5853286982 0.8776409030
3.9574913979 1.5702786446 0.8760870099
3.9604644775 1.5574120283 0.8756985664
3.9533414841 1.5406248569 0.8731734753
3.9681158066 1.5323752165 0.8753100634
3.9682173729 1.5184415579 0.8743389249
3.9655189514 1.5034786463 0.8727850318
3.9471545219 1.4826838970 0.8679291606
3.9323775768 1.4633842707 0.8638502359
3.9129173756 1.4424933195 0.8588001728
3.9145600796 1.4294726849 0.8582174778
3.9161596298 1.4164555073 0.8576347232
3.9149456024 1.4024498463 0.8564693332
3.9136826992 1.3884649277 0.8553039432
3.9123709202 1.3745009899 0.8541385531
3.9035980701 1.3579804897 0.8514192700
3.9012534618 1.3437623978 0.8500596285
3.9062860012 1.3321037292 0.8502538204
3.9131429195 1.3210541010 0.8508365750
3.9236903191 1.3112183809 0.8521962166
3.9295573235 1.2997903824 0.8525846601
3.9372556210 1.2889490128 0.8533616066
3.9458577633 1.2783749104 0.8543327451
3.9497611523 1.2662632465 0.8543327451
3.9601728916 1.2562152147 0.8556923866
3.9733679295 1.2469961643 0.8576347232
3.9827961922 1.2365447283 0.8588001728
3.9931354523 1.2263351679 0.8601598144
3.9593336582 1.2026777267 0.8523904085
3.7948334217 1.1400216818 0.8176224828
3.8114781380 1.1322835684 0.8203417659
3.8149340153 1.1205848455 0.8203417659
3.8543415070 1.0937242508 0.8263630271
3.8737359047 1.0863957405 0.8296650052
3.8950123787 1.0794823170 0.8333554864
3.9058749676 1.0695995092 0.8349093199
3.9309175014 1.0635015965 0.8393767476
3.9559593201 1.0572600365 0.8438441157
3.9800510406 1.0506246090 0.8481172919
2.4952578545 0.5614653230 0.5394788980
2.4912223816 0.5525337458 0.5383135080
2.4718220234 0.5402830839 0.5340403318
2.4610009193 0.5300141573 0.5315153003
2.4645345211 0.5228682756 0.5319037437
2.4632463455 0.5147032738 0.5313210487
2.4561662674 0.5053657889 0.5295729041
2.4519362450 0.4966603816 0.5284075141
2.4496002197 0.4883690178 0.5276305676
2.4530122280 0.4812288582 0.5280190706
2.4506242275 0.4729578793 0.5272421241
2.4501361847 0.4650716782 0.5268536806
2.4525158405 0.4577324092 0.5270478725
2.4519789219 0.4498522878 0.5266594291
2.4562437534 0.4428493381 0.5272421241
2.4546930790 0.4347987771 0.5266594291
2.4531159401 0.4267618954 0.5260767341
2.4515128136 0.4187387824 0.5254940391
2.4324688911 0.4078126848 0.5214151144
2.4279007912 0.3993936181 0.5202496648
2.4252407551 0.3913185894 0.5194727182
2.4186785221 0.3826511502 0.5179188848
2.4198410511 0.3752289414 0.5179188848
2.4132220745 0.3666256964 0.5163649917
2.4075434208 0.3582108319 0.5150053501
2.4018359184 0.3498342931 0.5136457086
2.4077537060 0.3431551754 0.5146169066
2.4058804512 0.3353608549 0.5140342116
2.4088420868 0.3282427192 0.5144226551
2.4351198673 0.3242130280 0.5194727182
2.4341576099 0.3164880276 0.5190842748
2.4263586998 0.3079085648 0.5173361897
2.4292390347 0.3007038534 0.5177246332
2.4223587513 0.2923106849 0.5161707401
2.4183728695 0.2843057215 0.5151996017
2.4172844887 0.2766621411 0.5148110986
2.4132471085 0.2687027156 0.5138399601
2.4160106182 0.2615085244 0.5142284036
2.4128992558 0.2536854148 0.5134514570
2.4156179428 0.2464804053 0.5138399601
2.4202675819 0.2394539416 0.5146169066
2.4151318073 0.2314669490 0.5134514570
2.4148538113 0.2239659131 0.5132572651
2.4135756493 0.2163813114 0.5128687620
2.4064095020 0.2083000243 0.5113149285
2.3992166519 0.2002647519 0.5097610354
2.3959085941 0.1925893426 0.5089840889
2.3974661827 0.1853133291 0.5091783404
2.3980233669 0.1779571325 0.5091783404
2.3956227303 0.1703909487 0.5085956454
2.3941767216 0.1629076004 0.5082071424
2.4044542313 0.1561959535 0.5101494789
2.4059011936 0.1488788873 0.5103437304
2.4151601791 0.1420138180 0.5120918155
2.4332144260 0.1355831325 0.5155880451
2.4492926598 0.1289401650 0.5186958313
2.4457576275 0.1212315932 0.5179188848
2.4539573193 0.1140907854 0.5194727182
2.4523358345 0.1064768210 0.5190842748
2.3791384697 0.0959982872 0.5045167208
2.2755122185 0.0848420113 0.4839278758
3.9944837093 -0.6663342118 0.8349093199
3.9779145718 -0.6761189699 0.8319958448
3.9758217335 -0.6883198619 0.8319958448
3.9678950310 -0.6994919181 0.8308303952
3.9782819748 -0.7139155865 0.8333554864
3.9992325306 -0.7303491235 0.8380171061
3.9853997231 -0.7404637933 0.8356862664
3.9942677021 -0.7674965858 0.8384055495
3.9918942451 -0.7797471881 0.8384055495
3.9971807003 -0.7935193181 0.8399594426
3.9870347977 -0.8042263389 0.8384055495
3.9730169773 -0.8140905499 0.8360747695
3.9772231579 -0.8276754022 0.8374343514
3.9708263874 -0.8390619159 0.8366574645
3.9739880562 -0.8524752855 0.8378228545
3.9986712933 -0.9480302334 0.8467576504
3.9974284172 -1.2782350779 0.8640444875
3.9748034477 1.7921156883 0.7896997929
3.9924221039 1.4849326611 0.7722682357
3.9951100349 1.4719959497 0.7719264627
3.9940536022 1.4577058554 0.7709010839
3.9892406464 1.4420965910 0.7691920996
3.9843695164 1.4265307188 0.7674831152
3.9775834084 1.4103498459 0.7654323578
3.9716651440 1.3945504427 0.7635524869
3.9694101810 1.3800946474 0.7623562217
3.9671037197 1.3656657934 0.7611599565
3.9628810883 1.3506284952 0.7596218586
3.9642055035 1.3375195265 0.7591091394
3.9692246914 1.3256632090 0.7592800856
3.9714021683 1.3128613234 0.7589382529
3.8892560005 1.2724915743 0.7432156801
3.7881522179 1.2265701294 0.7240751982
3.7984657288 1.2170463800 0.7252714634
3.8143920898 1.2092567682 0.7274931669
3.8030414581 1.1928321123 0.7247588038
3.8113884926 1.1826183796 0.7256132960
3.8187665939 1.1720757484 0.7262968421
3.8270585537 1.1617850065 0.7271513343
3.8438167572 1.1540033817 0.7295439243
3.8558402061 1.1447281837 0.7310819626
3.8801333904 1.1389967203 0.7348417044
3.9006423950 1.1320286989 0.7379179001
3.9239864349 1.1257604361 0.7415067554
3.9463803768 1.1190907955 0.7449246645
3.9640264511 1.1109652519 0.7474881411
3.9940042496 1.1061595678 0.7522732615
2.5171711445 0.5416454673 0.4800336957
2.5014708042 0.5302453041 0.4769575596
2.5030858517 0.5225684047 0.4769575596
2.4892351627 0.5117145777 0.4742231965
2.4676156044 0.4993883371 0.4701216519
2.4614052773 0.4902768433 0.4687544703
2.4551625252 0.4812081754 0.4673872888
2.4498548508 0.4723688066 0.4661910236
2.4435479641 0.4633831680 0.4648238420
2.4352719784 0.4540797472 0.4631148577
2.4366536140 0.4466063082 0.4631148577
2.4389820099 0.4393031597 0.4632857740
2.4335265160 0.4306176901 0.4620894790
2.4348361492 0.4231497049 0.4620894790
2.4390368462 0.4161744714 0.4626021683
2.4364149570 0.4080392718 0.4619185925
2.4269602299 0.3988068104 0.4600387216
2.4223358631 0.3904193640 0.4590133131
2.4235222340 0.3829859197 0.4590133131
2.4246859550 0.3755488396 0.4590133131
2.4258265495 0.3681082428 0.4590133131
2.4210968018 0.3597961068 0.4579879344
2.4231643677 0.3525082767 0.4581588507
2.4408175945 0.3474302888 0.4610641003
2.4301612377 0.3383119106 0.4590133131
2.4194719791 0.3292621970 0.4569625556
2.4107036591 0.3205406964 0.4552535713
2.4146070480 0.3135234118 0.4557662904
2.4106700420 0.3054954410 0.4549117982
2.4037730694 0.2971324325 0.4535446167
2.4017386436 0.2894032001 0.4530319273
2.4006578922 0.2818039954 0.4526901245
2.3966164589 0.2738789916 0.4518356323
2.3954870701 0.2663075626 0.4514938295
2.3894355297 0.2582171559 0.4502975643
2.3882565498 0.2506798506 0.4499557614
2.3909749985 0.2435509861 0.4502975643
2.3917109966 0.2362144440 0.4502975643
2.3953669071 0.2291566879 0.4508102536
2.3990018368 0.2220787108 0.4513229430
2.4124298096 0.2158571333 0.4535446167
2.4160256386 0.2087088078 0.4540573061
2.4186184406 0.2014588267 0.4543991089
2.4192252159 0.1940376610 0.4543991089
2.4217739105 0.1867658794 0.4547408819
2.4282310009 0.1797706336 0.4557662904
2.4268054962 0.1721809357 0.4554244876
2.4283053875 0.1648013443 0.4555953741
2.4376487732 0.1579225212 0.4571334422
2.4351713657 0.1502615958 0.4566207528
2.4523422718 0.1437675357 0.4595260322
2.5127825737 0.1395671070 0.4699507654
2.5102469921 0.1317029148 0.4694380760
3.9849348068 -0.8300038576 0.7394559383
3.9573071003 -0.8369225860 0.7350126505
3.9662804604 -0.8515424728 0.7370634079
3.9472839832 -0.8601390719 0.7341581583
3.9831075668 -0.8807579875 0.7409940362
3.9717342854 -0.8910319209 0.7394559383
3.9046146870 -0.8885585070 0.7280058265
3.8596289158 -0.8907800913 0.7204863429
3.8261790276 -0.8954294920 0.7150176167
3.7965714931 -0.9007923007 0.7102324963
3.7851686478 -0.9103613496 0.7086944580
3.7593841553 -0.9163674116 0.7045928836
3.7536854744 -0.9271876216 0.7040802240
3.7976567745 -0.9504251480 0.7124541998
3.7928130627 -0.9615873098 0.7121123672
3.7745761871 -0.9692963362 0.7093780041
3.8011445999 -0.9885627627 0.7146758437
3.8161966801 -1.0049891472 0.7179228663
3.8330874443 -1.0220248699 0.7215117216
3.8613240719 -1.0422559977 0.7271513343
3.8552570343 -1.0533181429 0.7266386747
3.8145639896 -1.0673922300 0.7204863429
3.8065314293 -1.0777475834 0.7196318507
3.8429880142 -1.1008201838 0.7268095613
3.7913298607 -1.0986149311 0.7180938125
3.8163061142 -1.1185579300 0.7232207060
3.8254148960 -1.1467646360 0.7261259556
3.8445081711 -1.1653573513 0.7302275300
3.8691751957 -1.1858106852 0.7353544235
3.8909292221 -1.2055512667 0.7399686575
3.9125983715 -1.2254363298 0.7445828915
3.9623613358 -1.2543895245 0.7543240190
3.9725701809 -1.2710450888 0.7568874955
3.9095911980 -1.2641240358 0.7461209893
3.8719792366 -1.2650932074 0.7399686575
3.8699510098 -1.2775841951 0.7403104305
3.8856406212 -1.2959995270 0.7438992858
3.8573706150 -1.2997322083 0.7394559383
3.8682882786 -1.3166413307 0.7421903014
3.9723114967 -1.3656719923 0.7620144486
3.8955049515 -1.3526365757 0.7486844063
3.8829691410 -1.3616462946 0.7471463680
3.8815596104 -1.3745396137 0.7476590276
3.8847460747 -1.3890962601 0.7490262389
3.8897333145 -1.4043546915 0.7507351637
3.8742983341 -1.4122314453 0.7486844063
3.8856661320 -1.4298970699 0.7515896559
3.9302110672 -1.4600005150 0.7606472373
3.8943474293 -1.4602866173 0.7548367381
3.9147286415 -1.4816464186 0.7594509721
3.9101645947 -1.4936496019 0.7594509721
3.8963706493 -1.5020937920 0.7577419877
3.9110264778 -1.5215443373 0.7613308430
3.9182624817 -1.5382177830 0.7635524869
3.8832967281 -1.5382543802 0.7579128742
3.8657505512 -1.5450403690 0.7555203438
3.9075942039 -1.5756896734 0.7642360926
3.9282951355 -1.5980687141 0.7690212131
3.9946839809 1.3470262289 0.6616084576
3.8505563736 1.2852978706 0.6383364201
3.8347585201 1.2669643164 0.6352432966
3.9429829121 1.2893055677 0.6515926719
3.8471655846 1.2449330091 0.6359797120
3.8716909885 1.2397581339 0.6392201781
3.8783051968 1.2287700176 0.6396620274
3.8848881721 1.2177530527 0.6401038766
3.8999428749 1.2093429565 0.6418713927
3.9093086720 1.1991121769 0.6427551508
3.9252738953 1.1908446550 0.6446699500
3.9440672398 1.1833429337 0.6470265985
3.9637994766 1.1760182381 0.6495305896
3.9835240841 1.1685836315 0.6520345211
3.9965901375 1.1591110229 0.6535074115
2.5213799477 0.5017586350 0.4166626334
2.5190248489 0.4932611287 0.4160734713
2.5146985054 0.4844088852 0.4151897132
2.5093700886 0.4754038751 0.4141586721
2.5049824715 0.4666171372 0.4132749140
2.4976456165 0.4573277831 0.4119493067
2.4873552322 0.4475628436 0.4101817906
2.4663140774 0.4359731376 0.4067941010
2.4530220032 0.4258690476 0.4045847356
2.4572420120 0.4188393950 0.4050265849
2.4507110119 0.4099943042 0.4038482606
2.4558615685 0.4031139314 0.4044374228
2.4561102390 0.3954204917 0.4042901397
2.4563348293 0.3877293169 0.4041428566
2.4594676495 0.3804937005 0.4044374228
2.4606235027 0.3729463816 0.4044374228
2.4588208199 0.3649603426 0.4039955437
2.4550347328 0.3567047417 0.4032590985
2.4580762386 0.3494492471 0.4035536945
2.4561975002 0.3414981663 0.4031118155
2.4523332119 0.3332957923 0.4023753405
2.4504027367 0.3253804743 0.4019334912
2.4455039501 0.3170990050 0.4010497332
2.4464652538 0.3095948100 0.4010497332
2.4454402924 0.3018456697 0.4007551372
2.4424266815 0.2938697636 0.4001659751
2.4423344135 0.2862601280 0.4000186920
2.4402530193 0.2784298956 0.3995768130
2.4391295910 0.2707240880 0.3992822170
2.4419155121 0.2634515464 0.3995768130
2.4348423481 0.2551352382 0.3983984888
2.4365978241 0.2477639467 0.3985457718
2.4393150806 0.2404811829 0.3988403678
2.4400413036 0.2329963297 0.3988403678
2.4427144527 0.2256909758 0.3991349339
2.4424102306 0.2181079537 0.3989876509
2.4460241795 0.2108681053 0.3994295299
2.4486310482 0.2035263628 0.3997240961
2.4522018433 0.1962493658 0.4001659751
2.4606819153 0.1893309802 0.4013442993
2.4681560993 0.1822897047 0.4023753405
2.4825167656 0.1756920367 0.4044374228
2.4840309620 0.1681416035 0.4045847356
2.4963796139 0.1612832993 0.4063522220
2.5136456490 0.1546537429 0.4088561833
2.5229949951 0.1474592835 0.4101817906
2.5342991352 0.1403179616 0.4118020236
2.5495338440 0.1333146691 0.4140113890
2.5894470215 0.1274308860 0.4199030399
2.5789573193 0.1189861745 0.4182828367
3.8884193897 -0.8730424643 0.6272895336
3.8432900906 -0.8752995729 0.6208087206
3.8261311054 -0.8837461472 0.6185993552
3.8166608810 -0.8939008117 0.6175683141
3.8071641922 -0.9040057659 0.6165372729
3.7947566509 -0.9133661985 0.6150643229
3.7832887173 -0.9228935242 0.6137387156
3.7737183571 -0.9328340292 0.6127076745
3.7545282841 -0.9403205514 0.6102037430
3.7391626835 -0.9486715198 0.6082889438
3.7218654156 -0.9564445019 0.6060795784
3.7074275017 -0.9648679495 0.6043120623
3.6939291954 -0.9734640121 0.6026918292
3.6851916313 -0.9832617640 0.6018081307
3.6773834229 -0.9932730794 0.6010716558
3.6695485115 -1.0032458305 0.6003351808
3.6635935307 -1.0137075186 0.5998933315
3.6547517776 -1.0233416557 0.5990095735
3.6458852291 -1.0329312086 0.5981258154
3.6369943619 -1.0424760580 0.5972420573
3.6290292740 -1.0522515774 0.5965055823
3.6248350143 -1.0631018877 0.5963582993
3.6130223274 -1.0716853142 0.5950326920
3.6059279442 -1.0816278458 0.5944435000
3.6395053864 -1.1038856506 0.6001878977
3.6550135612 -1.1208479404 0.6031337380
3.6685624123 -1.1373296976 0.6057849526
3.7179086208 -1.1651486158 0.6140332818
3.7482604980 -1.1873054504 0.6193357706
3.7530779839 -1.2015142441 0.6206614375
3.7550203800 -1.2148501873 0.6215451956
3.7503356934 -1.2260572910 0.6213978529
3.7437388897 -1.2366265059 0.6209560037
3.7399275303 -1.2481062412 0.6209560037
3.7313945293 -1.2579939365 0.6202195287
3.7247087955 -1.2684788704 0.6197776794
3.7170584202 -1.2786128521 0.6191884875
3.7056441307 -1.2874131203 0.6180101633
3.7054100037 -1.3000860214 0.6185993552
3.6892843246 -1.3071525097 0.6166845560
3.6778068542 -1.3157987595 0.6155062318
3.6678054333 -1.3376625776 0.6152116060
3.6933851242 -1.3598476648 0.6199249625
3.6984667778 -1.3746191263 0.6213978529
3.7034924030 -1.3894346952 0.6228708029
3.7963330746 -1.4375782013 0.6383364201
3.7207658291 -1.4220222235 0.6269949675
3.7209994793 -1.4352108240 0.6277314425
3.6529817581 -1.4218586683 0.6175683141
3.6633319855 -1.4388461113 0.6199249625
3.6690146923 -1.4540878534 0.6215451956
3.6672914028 -1.4664393663 0.6219870448
3.6838712692 -1.4861968756 0.6253747344
3.6847908497 -1.4997295141 0.6262584925
3.6920664310 -1.5159121752 0.6281732917
3.6983637810 -1.5317749977 0.6299408078
3.7000350952 -1.5457838774 0.6309718490
3.7016553879 -1.5598173141 0.6320028901
3.7004935741 -1.5727143288 0.6325920224
3.6938331127 -1.5832803249 0.6322974563
3.6934974194 -1.5965681076 0.6330339313
3.9375834465 1.3016849756 0.5500358939
3.9443881512 1.2905240059 0.5504061580
3.9427816868 1.2632703781 0.5491718650
3.9324491024 1.2466711998 0.5473204255
3.9409897327 1.2360851765 0.5479375720
3.9504504204 1.2257525921 0.5486781597
3.9617819786 1.2159556150 0.5496655703
3.9749896526 1.2066770792 0.5508998632
3.9891281128 1.1976140738 0.5522575974
2.5998330116 0.5012627840 0.3635357320
2.5955085754 0.4921758175 0.3627951741
2.5823729038 0.4814844131 0.3609437644
2.5809094906 0.4730232656 0.3605734706
2.5598852634 0.4610605240 0.3577346206
2.5632421970 0.4535502493 0.3579814732
2.5607106686 0.4450051486 0.3574877679
2.5483684540 0.4348122478 0.3557597697
2.5389242172 0.4251905680 0.3544020653
2.5372791290 0.4169169962 0.3540317714
2.5336475372 0.4083420336 0.3534146249
2.5319476128 0.4001027346 0.3530443311
2.5272791386 0.3914225399 0.3523037732
2.5265059471 0.3833696544 0.3520569205
2.5207989216 0.3745966554 0.3511929214
2.5160441399 0.3660049438 0.3504523337
2.5171551704 0.3582841158 0.3504523337
2.5152938366 0.3501498699 0.3500820696
2.5163562298 0.3424314260 0.3500820696
2.5124764442 0.3340565264 0.3494649231
2.5095529556 0.3258363008 0.3489712179
2.5075871944 0.3177617490 0.3486009240
2.5065805912 0.3098239303 0.3483540714
2.5035784245 0.3016581535 0.3478603661
2.5084345341 0.2944380045 0.3483540714
2.5053822994 0.2862907946 0.3478603661
2.5042760372 0.2783840895 0.3476134837
2.5100514889 0.2712320685 0.3482306302
2.5108718872 0.2635300457 0.3482306302
2.5106813908 0.2557251751 0.3481072187
2.5154042244 0.2484107912 0.3486009240
2.5112152100 0.2402207553 0.3479837775
2.5099642277 0.2323326916 0.3477369249
2.5096766949 0.2245428562 0.3476134837
2.5123312473 0.2170127183 0.3478603661
2.5159518719 0.2095506191 0.3482306302
2.5205397606 0.2021475285 0.3487243652
2.5260951519 0.1947944015 0.3493414819
2.5365774632 0.1877746284 0.3505757749
2.5569391251 0.1813931018 0.3530443311
2.5574836731 0.1735476702 0.3530443311
2.5708777905 0.1665325910 0.3546489179
2.5822718143 0.1593150198 0.3560066223
2.5827484131 0.1513919681 0.3560066223
2.5990540981 0.1443455964 0.3579814732
2.5945298672 0.1361119300 0.3573643267
2.6018731594 0.1284929812 0.3582283258
2.6557853222 0.1229809597 0.3648934662
3.9197351933 -0.8793610334 0.5338667631
3.9189541340 -0.8918230534 0.5341136456
3.9094312191 -0.9022792578 0.5332496166
3.9018135071 -0.9131378531 0.5326324701
3.8893382549 -0.9228122830 0.5313981771
3.8749110699 -0.9319545031 0.5299170613
3.8575720787 -0.9403116107 0.5280656219
3.8440721035 -0.9495233297 0.5267079473
3.8286266327 -0.9581791162 0.5251033902
3.8131642342 -0.9667490721 0.5234987736
3.8024911880 -0.9764677882 0.5225113630
3.7889132500 -0.9853805304 0.5211536288
3.7772359848 -0.9947248101 0.5200427771
3.7693722248 -1.0050296783 0.5194256902
3.7538166046 -1.0132262707 0.5178210735
3.7449469566 -1.0231682062 0.5170805454
3.7331824303 -1.0322716236 0.5159696937
3.7233085632 -1.0418474674 0.5151056647
3.7162754536 -1.0521837473 0.5146119595
3.7034902573 -1.0608465672 0.5133776665
3.6973588467 -1.0713748932 0.5130074024
3.6892931461 -1.0813171864 0.5123902559
3.6812014580 -1.0912200212 0.5117731094
3.6740341187 -1.1013684273 0.5112794042
3.6668393612 -1.1114832163 0.5107856989
3.6577193737 -1.1209824085 0.5100451112
3.6504716873 -1.1310237646 0.5095514059
3.6431965828 -1.1410311460 0.5090577006
3.6425170898 -1.1531016827 0.5094279647
3.6332914829 -1.1624563932 0.5086873770
3.6806943417 -1.1900889874 0.5153525472
3.7756733894 -1.2851084471 0.5302873254
3.7529447079 -1.2902315855 0.5278187990
3.7545931339 -1.3036930561 0.5285593271
3.7430846691 -1.3125780821 0.5275719166
3.7324922085 -1.3217360973 0.5267079473
3.6901099682 -1.3194782734 0.5216473937
3.7140450478 -1.3409055471 0.5253502131
3.7183046341 -1.3553531170 0.5264610648
3.7010912895 -1.3619551659 0.5247330666
3.6894536018 -1.3705383539 0.5237456560
3.6824440956 -1.3808054924 0.5233753920
3.6475641727 -1.3805018663 0.5193022490
3.6423847675 -1.3913317919 0.5191788077
3.6399507523 -1.4032139778 0.5194256902
3.6152832508 -1.4064571857 0.5167102218
3.6109511852 -1.4175421000 0.5167102218
3.6111981869 -1.4304413795 0.5173273683
3.5883636475 -1.4341461658 0.5148588419
3.5867078304 -1.4462620020 0.5152291059
3.5868496895 -1.4591290951 0.5158462524
3.5603239536 -1.4610823393 0.5128839612
3.5594921112 -1.4735170603 0.5133776665
3.5375564098 -1.4771635532 0.5110325217
3.5202047825 -1.4826158285 0.5093045235
3.5302529335 -1.4996179342 0.5112794042
3.5219869614 -1.5088779926 0.5107856989
3.5246286392 -1.5228255987 0.5117731094
3.5199401379 -1.5336319208 0.5117731094
3.4888720512 -1.5328451395 0.5081936717
3.5168144703 -1.5580152273 0.5126370788
3.5346686840 -1.5789179802 0.5157228112
3.5261888504 -1.5881243944 0.5152291059
3.3112273216 1.7970031500 0.4099799395
2.6567475796 0.5122276545 0.3041910827
2.6524405479 0.5029629469 0.3035961986
2.6529927254 0.4946407676 0.3034970760
2.6368794441 0.4832728207 0.3017124236
2.6217010021 0.4721846581 0.3000269532
2.6182379723 0.4632729888 0.2995312214
2.6059212685 0.4528549910 0.2981431782
2.5945463181 0.4426841736 0.2968542874
2.5900037289 0.4337368906 0.2962594032
2.5873944759 0.4251440465 0.2958628237
2.5877041817 0.4170458615 0.2957636714
2.5830740929 0.4081739187 0.2951687872
2.5754637718 0.3988778889 0.2942764759
2.5786430836 0.3912728429 0.2944747806
2.5630984306 0.3808758855 0.2927892804
2.5672090054 0.3734399080 0.2930867374
2.5584909916 0.3641613424 0.2920952737
2.5615675449 0.3565843999 0.2922935486
2.5567333698 0.3479197919 0.2916986644
2.5538430214 0.3395501971 0.2913020849
2.5499386787 0.3310736418 0.2908063531
2.5450191498 0.3224993348 0.2902114987
2.5450091362 0.3145678937 0.2901123464
2.5439863205 0.3065206707 0.2899140418
2.5429382324 0.2984826565 0.2897157669
2.5468077660 0.2910180986 0.2900131941
2.5466997623 0.2830934525 0.2899140418
2.5465669632 0.2751722038 0.2898148894
2.5473990440 0.2673581541 0.2898148894
2.5462274551 0.2593402267 0.2896166146
2.5499820709 0.2518202066 0.2899140418
2.5477707386 0.2437119782 0.2896166146
2.5504882336 0.2360775173 0.2898148894
2.5531828403 0.2284286618 0.2900131941
2.5548629761 0.2206800133 0.2901123464
2.5614778996 0.2133354098 0.2907072306
2.5710475445 0.2061904818 0.2915995419
2.5944871902 0.2000578046 0.2938798964
2.5960810184 0.1921703964 0.2939790487
2.5966584682 0.1842048317 0.2939790487
2.6180601120 0.1776491553 0.2960610986
2.6205787659 0.1697445661 0.2962594032
2.6300261021 0.1622540802 0.2971517146
2.6195843220 0.1535456479 0.2960610986
2.6250107288 0.1457833052 0.2965568304
2.6423387527 0.1386129111 0.2982423306
2.6427516937 0.1305056810 0.2982423306
2.6431396008 0.1223972216 0.2982423306
2.6425085068 0.1142447665 0.2981431782
3.9696624279 -0.9418787360 0.4411118329
3.9619169235 -0.9528891444 0.4406161010
3.9522075653 -0.9633893967 0.4399220645
3.9434373379 -0.9740778208 0.4393271804
3.9259510040 -0.9825463295 0.4378399849
3.9123084545 -0.9918953776 0.4367493987
3.8957538605 -1.0004271269 0.4353613555
3.8791842461 -1.0088666677 0.4339733124
3.8625993729 -1.0172140598 0.4325852692
3.8508074284 -1.0267513990 0.4316929281
3.8389933109 -1.0362261534 0.4308006167
3.8261973858 -1.0453755856 0.4298091531
3.8200950623 -1.0563133955 0.4295117259
3.8024628162 -1.0640047789 0.4280245304
3.8001379967 -1.0759366751 0.4281236827
3.7776875496 -1.0821081400 0.4261407554
3.7791285515 -1.0950779915 0.4266364872
3.7690670490 -1.1047072411 0.4259424806
3.7551660538 -1.1131534576 0.4248518646
3.7564990520 -1.1260980368 0.4253475964
3.7473130226 -1.1358850002 0.4247527122
3.7333455086 -1.1441679001 0.4236620963
3.7241148949 -1.1538487673 0.4230672419
3.7139103413 -1.1631861925 0.4223732054
3.7368862629 -1.1829864979 0.4251492918
3.8223245144 -1.2229578495 0.4344690442
3.8573725224 -1.2472343445 0.4385340214
3.8648781776 -1.2627723217 0.4397237599
3.8864974976 -1.2830485106 0.4424007237
3.9099166393 -1.3040990829 0.4452759624
3.9209845066 -1.3211735487 0.4468622804
3.9112610817 -1.3312724829 0.4462674260
3.8958666325 -1.3393825293 0.4450776577
3.8870391846 -1.3496961594 0.4445819259
3.8547105789 -1.3517338037 0.4416075349
3.8308482170 -1.3565763235 0.4395254850
3.8379113674 -1.3723443747 0.4407152236
3.8439781666 -1.3878303766 0.4418058395
3.8724226952 -1.4115475416 0.4452759624
3.8643386364 -1.4220463037 0.4448793828
3.8926041126 -1.4460263252 0.4483494759
3.8402140141 -1.4804388285 0.4446810782
3.7976334095 -1.4774179459 0.4406161010
3.8513245583 -1.5392731428 0.4478537440
3.6043467522 -1.5704177618 0.4263390601
3.5667164326 -1.5670557022 0.4227697849
3.5682601929 -1.5808129311 0.4234638214
3.5430698395 -1.5957293510 0.4217783213
3.3086287975 1.7955933809 0.3173853159
3.3582775593 1.7959457636 0.3206767142
3.3505592346 1.7786221504 0.3195546567
3.1733708382 1.6721276045 0.3040700853
3.0830473900 1.6124817133 0.2959911823
3.1163032055 1.6177145243 0.2983849347
3.0990889072 1.5967304707 0.2965148091
2.6792130470 0.4995255768 0.2394388318
2.6807329655 0.4913035035 0.2394388318
2.6910605431 0.4846663773 0.2401120812
2.6503100395 0.4689430892 0.2368954867
2.6311039925 0.4572274387 0.2353245765
2.6285622120 0.4484828711 0.2350253612
2.6230411530 0.4392645359 0.2345017344
2.6155200005 0.4297612309 0.2338284850
2.6119036674 0.4209423065 0.2334544659
2.6062879562 0.4118386209 0.2329308242
2.6045827866 0.4033832848 0.2327064127
2.5998923779 0.3944939077 0.2322575897
2.5981311798 0.3860764205 0.2320331782
2.5963430405 0.3776734471 0.2318087667
2.5965023041 0.3695658445 0.2317339629
2.5995991230 0.3618728220 0.2318835706
2.5977327824 0.3534927368 0.2316591442
2.5938625336 0.3448649347 0.2312851250
2.5909526348 0.3363924623 0.2309859097
2.5890045166 0.3280663192 0.2307614982
2.5890092850 0.3199996650 0.2306866944
2.5870084763 0.3116977513 0.2304622829
2.5820102692 0.3030628562 0.2300134450
2.5859000683 0.2954791188 0.2302378565
2.5848121643 0.2873242497 0.2300882488
2.5827071667 0.2790718675 0.2298638374
2.5825595856 0.2710429728 0.2297890335
2.5823867321 0.2630176246 0.2297142297
2.5851664543 0.2552894354 0.2298638374
2.5909008980 0.2478310913 0.2302378565
2.5946278572 0.2401564419 0.2304622829
2.5923726559 0.2319289595 0.2302378565
2.5960526466 0.2242315859 0.2304622829
2.5967283249 0.2162659466 0.2304622829
2.6053316593 0.2089348137 0.2310607135
2.6159031391 0.2017059624 0.2318087667
2.6294379234 0.1946346164 0.2327812165
2.6349961758 0.1869187653 0.2331552505
2.6355571747 0.1788338423 0.2331552505
2.6291277409 0.1702970415 0.2326316088
2.6395909786 0.1628427655 0.2333796620
2.6570014954 0.1557333171 0.2346513420
2.6614494324 0.1478016078 0.2349505574
2.6668696404 0.1398961693 0.2353245765
2.6732621193 0.1320079118 0.2357734144
2.6816236973 0.1241737008 0.2363718450
2.6799995899 0.1158601567 0.2362222373
2.6843280792 0.1077969670 0.2365214527
3.8696269989 -1.0956184864 0.3366849422
3.8854196072 -1.1129791737 0.3381810188
3.8791134357 -1.1240613461 0.3379566073
3.8603360653 -1.1314678192 0.3367597461
3.8568465710 -1.1433057785 0.3367597461
3.8533208370 -1.1551331282 0.3367597461
3.8392615318 -1.1637663841 0.3359368742
3.8356730938 -1.1755396128 0.3359368742
3.8389513493 -1.2153083086 0.3370589614
3.8295063972 -1.2252564430 0.3366101086
3.8333196640 -1.2394545078 0.3372085690
3.8114714622 -1.3234488964 0.3376573920
3.8535015583 -1.3513097763 0.3413228095
3.8530976772 -1.3644576073 0.3416220248
3.9750220776 -1.4351565838 0.3520198762
3.7050111294 -1.5873104334 0.3373581767
3.6680858135 -1.5848238468 0.3347400129
3.6077594757 -1.5983165503 0.3309997618
3.0290908813 1.7545691729 0.2121003866
3.0223383904 1.7382980585 0.2113945186
3.0215857029 1.7255512476 0.2110415846
3.0042092800 1.6791554689 0.2091256827
3.0389506817 1.6741813421 0.2105374038
3.0623323917 1.6626497507 0.2112936825
3.3376617432 1.6433144808 0.2231924832
3.4241292477 1.5826941729 0.2258142531
3.4507582188 1.5821694136 0.2270243019
2.7436785698 0.5033226013 0.1762023121
2.7432439327 0.4945486188 0.1761014760
2.7378642559 0.4849118590 0.1757485420
2.6921081543 0.4683007896 0.1733284593
2.6905786991 0.4595353007 0.1731771976
2.6880357265 0.4506186247 0.1729755253
2.6844780445 0.4415599406 0.1727234274
2.6799042225 0.4323683679 0.1724209189
2.6733262539 0.4228972197 0.1720175743
2.6696763039 0.4139291644 0.1717654765
2.6630342007 0.4045379460 0.1713621318
2.6612992287 0.3959254920 0.1712108701
2.6506414413 0.3860333562 0.1706058532
2.6439032555 0.3767734170 0.1702024937
2.6371331215 0.3675584495 0.1697991490
2.6362693310 0.3591967523 0.1696983129
2.6294386387 0.3500538468 0.1692949682
2.6265387535 0.3414707482 0.1690932959
2.6196475029 0.3324064314 0.1686899364
2.6176815033 0.3240002692 0.1685386896
2.6176714897 0.3158483207 0.1684882641
2.6186282635 0.3078159392 0.1684882641
2.6185679436 0.2996672392 0.1684378535
2.6224529743 0.2919632792 0.1685891002
2.6273081303 0.2843455970 0.1687907726
2.6251883507 0.2759709656 0.1686395258
2.6319839954 0.2685230672 0.1689420342
2.6337893009 0.2605451643 0.1689924598
2.6286113262 0.2518928349 0.1686899364
2.6343441010 0.2442875504 0.1689420342
2.6440339088 0.2370055467 0.1693958044
2.6507186890 0.2294084728 0.1696983129
2.6524052620 0.2213580161 0.1697487384
2.6381390095 0.2120215595 0.1689924598
2.6367855072 0.2037732452 0.1688916087
2.6423783302 0.1960515082 0.1691437066
2.6439635754 0.1880145818 0.1691941321
2.6495101452 0.1802403331 0.1694462150
2.6510472298 0.1721754968 0.1694966406
2.6555502415 0.1642874777 0.1696983129
2.6620240211 0.1564904004 0.1700008214
2.6834325790 0.1494862586 0.1710596234
2.6808865070 0.1410958469 0.1709083617
2.6872916222 0.1331660748 0.1712108701
2.6976642609 0.1253832281 0.1717150509
2.7040228844 0.1173653156 0.1720175743
2.7093598843 0.1092694700 0.1722696573
2.7126765251 0.1010678858 0.1724209189
2.7159683704 0.0928469747 0.1725721806
2.7182369232 0.0845759064 0.1726730168
3.9649035931 -1.3352090120 0.2465867251
3.9021682739 -1.3274196386 0.2434607744
3.9009108543 -1.3403589725 0.2436120212
3.9279158115 -1.3631287813 0.2452758402
3.9793219566 -1.3946676254 0.2482505441
3.9543123245 -1.3995367289 0.2471413314
3.9178047180 -1.4273229837 0.2458808571
3.9138538837 -1.4668269157 0.2463850528
3.9317533970 -1.4873102903 0.2475951016
3.9654211998 -1.5279289484 0.2499143481
3.8295626640 -1.5983481407 0.2448724955
3.0576903820 1.7454600334 0.1273497194
3.2499632835 1.6870805025 0.1310160756
3.2577898502 1.6784750223 0.1310940832
3.4506108761 1.5813761950 0.1345003992
2.7572281361 0.4878452122 0.1086019352
2.7498474121 0.4778447747 0.1083679125
2.7463734150 0.4685661495 0.1082378998
2.7270929813 0.4566739202 0.1076918468
2.7166435719 0.4463618994 0.1073798239
2.7180001736 0.4380252659 0.1073798239
2.7035324574 0.4271903634 0.1069637835
2.7068059444 0.4191997349 0.1070157886
2.6972072124 0.4092453718 0.1067297608
2.6905395985 0.3997942209 0.1065217406
2.6897749901 0.3912503719 0.1064697355
2.6810655594 0.3815892041 0.1062097102
2.6782629490 0.3728112876 0.1061057001
2.6774132252 0.3643234670 0.1060536951
2.6755454540 0.3557127416 0.1059756875
2.6706759930 0.3467312455 0.1058196723
2.6747024059 0.3389126658 0.1058976799
2.6717610359 0.3302152753 0.1057936698
2.6737539768 0.3221363127 0.1058196723
2.6707582474 0.3134662807 0.1057156622
2.6677346230 0.3048176765 0.1056116521
2.6636893749 0.2960802913 0.1054816395
2.6616034508 0.2875850797 0.1054036319
2.6545195580 0.2785844803 0.1051956117
2.6493945122 0.2698323429 0.1050395966
2.6462306976 0.2613104880 0.1049355865
2.6480150223 0.2532857656 0.1049615890
2.6447978020 0.2447926253 0.1048575789
2.6455364227 0.2366773486 0.1048575789
2.6502339840 0.2289033532 0.1049615890
2.6509237289 0.2207714766 0.1049615890
2.6545779705 0.2128768116 0.1050395966
2.6631922722 0.2053453326 0.1052476168
2.6618158817 0.1970265061 0.1051956117
2.6644022465 0.1890004277 0.1052476168
2.6659669876 0.1808927953 0.1052736193
2.6764850616 0.1733575612 0.1055336446
2.6789999008 0.1652682275 0.1055856496
2.6854820251 0.1573984772 0.1057416648
2.6919410229 0.1494905055 0.1058976799
2.7193410397 0.1426410675 0.1065997481
2.7327458858 0.1349366605 0.1069377810
2.7351441383 0.1266442686 0.1069897860
2.7425110340 0.1185535938 0.1071718037
2.7438607216 0.1101790965 0.1071978062
2.7521774769 0.1020557657 0.1074058264
2.7514786720 0.0935778841 0.1073798239
2.7517528534 0.0851360261 0.1073798239
2.7350132465 0.0762223378 0.1069377810
3.9731001854 -1.3387392759 0.1448233873
3.9576184750 -1.3470559120 0.1445113569
3.9477953911 -1.3572407961 0.1443553418
3.9237821102 -1.3624582291 0.1438092887
3.9186403751 -1.3741588593 0.1437832862
3.9106369019 -1.3848395348 0.1436792761
3.9054284096 -1.3964940310 0.1436532736
3.9086475372 -1.4111856222 0.1438612938
3.8704893589 -1.4108425379 0.1429252028
3.9261825085 -1.4448111057 0.1445893645
3.9357874393 -1.4620726109 0.1449794024
3.9378352165 -1.4765980244 0.1451614201
3.9332864285 -1.4886721373 0.1451614201
3.9389727116 -1.5046572685 0.1454474479
3.9343380928 -1.5167347193 0.1454474479
3.9287345409 -1.5284354687 0.1454214454
3.9305403233 -1.5430392027 0.1456034631
3.9257879257 -1.5550906658 0.1456034631
3.9154291153 -1.5649008751 0.1454474479
3.9217348099 -1.5813931227 0.1457594782
3.9011237621 -1.5870121717 0.1453174353
3.8555462360 -1.5822700262 0.1441733241
3.7869446278 -1.5677019358 0.1423791498
3.7987210751 -1.5862479210 0.1428471953
3.7956790924 -1.5986709595 0.1428992003
3.2283067703 1.7392137051 0.0412780270
3.2327344418 1.7160910368 0.0412682518
3.2406382561 1.7075632811 0.0412724428
3.2741320133 1.6996234655 0.0413087457
3.3713815212 1.6849581003 0.0414204448
3.7248811722 1.6794600487 0.0418630615
3.8503007889 1.7076458931 0.0420389920
2.8167819977 0.4894665182 0.0401498452
2.8143272400 0.4801502526 0.0401442610
2.8069105148 0.4700285792 0.0401316956
2.7984714508 0.4597949684 0.0401177332
2.7830851078 0.4485047758 0.0400939956
2.7824723721 0.4396524131 0.0400912017
2.7689845562 0.4288202822 0.0400702581
2.7584226131 0.4185246527 0.0400535055
2.7507913113 0.4087384343 0.0400409363
2.7411468029 0.3987153471 0.0400255807
2.7334465981 0.3890368640 0.0400130115
2.7257130146 0.3794094026 0.0400004461
2.7229008675 0.3705064654 0.0399948619
2.7160942554 0.3610978127 0.0399836898
2.7142143250 0.3523774445 0.0399795026
2.7083380222 0.3431697488 0.0399697274
2.7044157982 0.3342464566 0.0399627462
2.6984786987 0.3251115382 0.0399529748
2.6954905987 0.3163655102 0.0399473868
2.6944613457 0.3078676164 0.0399445966
2.6983747482 0.2999306619 0.0399487838
2.6962995529 0.2913289070 0.0399445966
2.6951916218 0.2828469276 0.0399418026
2.6920671463 0.2741721570 0.0399362184
2.6928956509 0.2659117281 0.0399362184
2.6936988831 0.2576487958 0.0399362184
2.6875064373 0.2487393022 0.0399264432
2.6872608662 0.2404040098 0.0399250463
2.6889820099 0.2322443873 0.0399264432
2.6886851788 0.2239107639 0.0399250463
2.6943435669 0.2160599083 0.0399320312
2.6920027733 0.2075625509 0.0399278402
2.6936240196 0.1993763000 0.0399292372
2.7131755352 0.1924531013 0.0399557650
2.7187418938 0.1844660491 0.0399627462
2.7362596989 0.1772205532 0.0399864838
2.7627413273 0.1704221666 0.0400227867
2.7632510662 0.1619453877 0.0400227867
2.7886967659 0.1548496932 0.0400576927
2.7981462479 0.1467635334 0.0400702581
2.8335411549 0.1398994327 0.0401191302
2.8409495354 0.1315283775 0.0401289016
2.8473341465 0.1230701283 0.0401372798
2.8746767044 0.1154135615 0.0401749797
3.9912548065 -1.5810304880 0.0421520881
3.9594576359 -1.5825027227 0.0421115942
3.9267621040 -1.5834208727 0.0420697071
3.8764994144 -1.5769921541 0.0420012921
3.8771934509 -1.5911561251 0.0420096703
2.8481194973 1.7922234535 -0.0415806659
2.8612349033 1.7882449627 -0.0417895615
2.8760516644 1.7852569818 -0.0420448817
2.9078984261 1.7926857471 -0.0427644141
3.2667179108 1.7858487368 -0.0498901270
3.3129916191 1.7717334032 -0.0506792963
3.2999219894 1.7258797884 -0.0499133393
3.6462750435 1.7944349051 -0.0578050092
3.9332156181 0.6460772157 -0.0559945665
2.9294078350 0.4720647037 -0.0323427692
2.9120798111 0.4601131976 -0.0319017619
2.9115018845 0.4508711696 -0.0318553410
2.8861835003 0.4378912151 -0.0312286504
2.8588354588 0.4247772992 -0.0305555370
2.8472638130 0.4141355753 -0.0302537959
2.8178379536 0.4010357857 -0.0295342617
2.8160843849 0.3919758201 -0.0294646304
2.7845830917 0.3788908124 -0.0286986735
2.7787952423 0.3694247603 -0.0285361987
2.7769412994 0.3605120778 -0.0284665655
2.7720832825 0.3512376547 -0.0283273011
2.7582647800 0.3408941031 -0.0279791392
2.7424240112 0.3303997517 -0.0275845546
2.7225732803 0.3195402622 -0.0270971283
2.7265205383 0.3115260601 -0.0271667615
2.7234890461 0.3027185500 -0.0270739179
2.7184412479 0.2937180400 -0.0269346535
2.7173409462 0.2851682007 -0.0268882308
2.7182030678 0.2768301666 -0.0268882308
2.7210292816 0.2686857581 -0.0269346535
2.7228360176 0.2604315281 -0.0269578639
2.7295951843 0.2526287138 -0.0270971283
2.7333447933 0.2445200682 -0.0271667615
2.7370700836 0.2363907844 -0.0272363927
2.7427639961 0.2284065783 -0.0273524467
2.7444481850 0.2200706005 -0.0273756590
2.7530848980 0.2122634053 -0.0275613442
2.7626962662 0.2044789493 -0.0277702417
2.7692940235 0.1964257210 -0.0279095061
2.7788605690 0.1885365248 -0.0281184036
2.7864093781 0.1804615408 -0.0282808784
2.7879478931 0.1719735116 -0.0283040907
2.8164069653 0.1650532484 -0.0289539918
2.8178982735 0.1564671397 -0.0289772023
2.8483161926 0.1493880153 -0.0296735261
2.8647372723 0.1414354146 -0.0300449003
2.8791391850 0.1332912594 -0.0303698499
2.8845286369 0.1246727332 -0.0304859038
3.9101274014 -1.5627814531 -0.0612169951
3.8997516632 -1.5725263357 -0.0610777326
2.9364075661 1.7978484631 -0.1278440952
2.9427630901 1.7893501520 -0.1278918982
2.9661960602 1.7911543846 -0.1288957745
3.7776191235 1.7876121998 -0.1630754918
3.7839899063 1.7764385939 -0.1631232947
3.7758393288 1.7584968805 -0.1624062359
3.7721486092 1.7427161932 -0.1619282067
3.8029036522 1.7427846193 -0.1632667035
3.2574207783 0.5043932796 -0.1208169386
3.1048910618 0.4710438848 -0.1133595482
3.0727286339 0.4565292001 -0.1117342189
3.0642299652 0.4456636906 -0.1112561822
3.0329489708 0.4316206872 -0.1096786559
3.0134828091 0.4194247127 -0.1086747721
3.0107963085 0.4096393585 -0.1084835604
3.0110487938 0.4002689421 -0.1084357575
3.0102813244 0.3907723725 -0.1083401516
3.0134480000 0.3817859590 -0.1084357575
3.0324490070 0.3747418523 -0.1092962250
3.0355679989 0.3656753302 -0.1093918309
3.0059216022 0.3527555168 -0.1079099178
3.0030200481 0.3430788219 -0.1077186987
2.9722900391 0.3303375244 -0.1061889753
2.9494552612 0.3186453283 -0.1050416902
2.9156494141 0.3059511483 -0.1033685505
2.9036560059 0.2956908047 -0.1027471051
2.8846688271 0.2848208547 -0.1017910317
2.8815517426 0.2755896151 -0.1015998125
2.8734319210 0.2659206390 -0.1011695787
2.8692598343 0.2566595078 -0.1009305641
2.8700337410 0.2478555292 -0.1009305641
2.8687896729 0.2388837188 -0.1008349508
2.8754832745 0.2305594683 -0.1011217758
2.8791646957 0.2219664603 -0.1012651846
2.8718631268 0.2125435472 -0.1008827537
2.8754906654 0.2039434016 -0.1010261700
2.8870651722 0.1958627850 -0.1015520096
2.8906428814 0.1871977299 -0.1016954184
2.8912036419 0.1783284843 -0.1016954184
2.9047000408 0.1702154577 -0.1023168713
2.9072031975 0.1614136398 -0.1024124771
2.9415996075 0.1542678624 -0.1040378064
3.0208730698 0.1491229534 -0.1078143045
2.9973692894 0.1387489140 -0.1066670194
3.6763739586 0.1587911099 -0.1391735971
3.5996408463 1.7997910976 -0.2539807856
3.5810210705 1.7767722607 -0.2520315349
3.6240394115 1.7842773199 -0.2550636828
3.6205327511 1.7413382530 -0.2534754276
3.6077098846 1.7079961300 -0.2515983880
3.5993907452 1.6905609369 -0.2505154610
3.7037677765 0.5624828339 -0.2338387072
3.2625133991 0.4852814674 -0.2014237046
3.1820659637 0.4633511305 -0.1954316199
3.1498997211 0.4488070905 -0.1929770410
3.1305167675 0.4362528622 -0.1914609671
3.1229457855 0.4254359305 -0.1908112317
3.1222589016 0.4155898988 -0.1906668395
3.1225302219 0.4058805406 -0.1905946434
3.1277186871 0.3968004882 -0.1908834130
3.1249618530 0.3867134154 -0.1905946434
3.1310846806 0.3777210414 -0.1909556091
3.1233134270 0.3670665622 -0.1903058738
3.1085698605 0.3556705415 -0.1891507655
3.0987424850 0.3449195325 -0.1883566380
3.0561549664 0.3306954503 -0.1851801127
3.0313646793 0.3186103106 -0.1833030730
2.9876763821 0.3047598004 -0.1800543517
2.9806568623 0.2948079407 -0.1794767976
2.9676473141 0.2843320668 -0.1784660965
2.9526152611 0.2737548947 -0.1773109883
2.9464874268 0.2640728056 -0.1768056303
2.9462900162 0.2549459934 -0.1767334342
2.9420886040 0.2454916835 -0.1763724685
2.9517755508 0.2371821404 -0.1770222187
2.9415507317 0.2272813320 -0.1762280762
2.9472074509 0.2186239809 -0.1765890568
2.9528386593 0.2099340707 -0.1769500226
2.9445130825 0.2002659440 -0.1763002723
2.9590477943 0.1921343207 -0.1773109883
2.9715692997 0.1837925017 -0.1781773120
2.9661450386 0.1743246615 -0.1777441502
2.9905664921 0.1665518433 -0.1794767976
3.0637726784 0.1611924320 -0.1847469509
3.1618781090 0.1566159278 -0.1918219328
3.5527184010 0.5382960439 -0.3101814389
3.4145424366 0.5066643357 -0.2964973152
3.2929525375 0.4783160388 -0.2844514549
3.2471024990 0.4614940882 -0.2798258364
3.2169547081 0.4471486509 -0.2767421007
3.1956264973 0.4341976047 -0.2745256722
3.1880633831 0.4232137501 -0.2736583650
3.1863853931 0.4130474031 -0.2733692527
3.1846752167 0.4028953612 -0.2730801702
3.1878719330 0.3933665752 -0.2732729018
3.1959815025 0.3844156861 -0.2739474773
3.1981344223 0.3747244477 -0.2740438282
3.1834456921 0.3631080687 -0.2725019753
3.1726734638 0.3520239592 -0.2713455558
3.1588940620 0.3406895399 -0.2699000537
3.1044876575 0.3251965344 -0.2645035088
3.0826950073 0.3133582771 -0.2622870803
3.0479815006 0.3003893793 -0.2588178515
3.0231266022 0.2885810137 -0.2563123107
3.0091307163 0.2779335976 -0.2548668087
3.0040206909 0.2681701481 -0.2542886138
3.0058209896 0.2590380013 -0.2543849945
3.0046176910 0.2496504784 -0.2541922629
2.9964396954 0.2397180498 -0.2533249557
2.9912066460 0.2300667614 -0.2527467310
2.9899129868 0.2207424641 -0.2525539994
2.9925620556 0.2117087245 -0.2527467310
3.0031282902 0.2031973302 -0.2537104189
3.0186367035 0.1949431747 -0.2551559210
3.0351161957 0.1866567433 -0.2566977739
3.0754210949 0.1796611398 -0.2605524659
3.0968282223 0.1713773757 -0.2625761628
3.2056849003 0.1675244570 -0.2730801702
3.5402183533 0.1740768999 -0.3054594398
3.4635694027 0.5139334798 -0.3862521350
3.3816220760 0.4911850989 -0.3760257661
3.3388836384 0.4745273590 -0.3706118166
3.2990252972 0.4585462213 -0.3655587733
3.2709052563 0.4444166422 -0.3619494736
3.2574913502 0.4324217439 -0.3601448238
3.2519111633 0.4215333760 -0.3593026698
3.2522041798 0.4114301801 -0.3591823578
3.2544364929 0.4015720785 -0.3593026698
3.2526960373 0.3912304342 -0.3589417338
3.2568390369 0.3815956712 -0.3593026698
3.2599673271 0.3718267977 -0.3595432639
3.2393853664 0.3594177663 -0.3568964601
3.2246804237 0.3477765024 -0.3549714983
3.1990737915 0.3350925744 -0.3517231345
3.1507039070 0.3202628195 -0.3457076252
3.1319122314 0.3086502850 -0.3433014154
3.0844199657 0.2944240272 -0.3374062181
3.0625722408 0.2828626931 -0.3346390724
3.0426604748 0.2716145217 -0.3321125805
3.0415012836 0.2621082664 -0.3318719566
3.0343763828 0.2521192431 -0.3309094608
3.0420627594 0.2433619946 -0.3317516446
3.0427951813 0.2340279222 -0.3317516446
3.0415186882 0.2245457321 -0.3315110207
3.0481348038 0.2156329900 -0.3322328925
3.0705726147 0.2077519894 -0.3348796964
3.0939812660 0.1997991949 -0.3376468420
3.1451141834 0.1934073865 -0.3437826633
3.4103040695 0.1991820484 -0.3759054542
3.4673991203 0.1918380260 -0.3827631176
3.3813505173 0.4705779552 -0.4601602852
3.3582661152 0.4568700194 -0.4565470815
3.3380725384 0.4436990023 -0.4533674419
3.3197922707 0.4309107363 -0.4504768550
3.3132452965 0.4197297692 -0.4493206143
3.3027329445 0.4081081152 -0.4475862682
3.3039693832 0.3979735672 -0.4475862682
3.3110713959 0.3885264695 -0.4484534562
3.3151972294 0.3787029982 -0.4488870502
3.3045420647 0.3672202528 -0.4471527040
3.2879447937 0.3551695645 -0.4445511699
3.2634320259 0.3423990905 -0.4407934248
3.2132771015 0.3271793723 -0.4332779050
3.1955561638 0.3154748082 -0.4305318594
3.1502130032 0.3012480438 -0.4237390161
3.1146662235 0.2882129848 -0.4183914363
3.1017377377 0.2774235904 -0.4163680375
3.1065175533 0.2682462931 -0.4169461429
3.0885901451 0.2571567595 -0.4142000973
3.0913372040 0.2478377968 -0.4144891500
3.0940561295 0.2385044098 -0.4147782326
3.0997073650 0.2293753475 -0.4155008495
3.1122407913 0.2207029611 -0.4172351956
3.1306736469 0.2123568952 -0.4198367298
