3.87695432 -1.10440302 0.35510468
2.49483061 0.55894107 0.53708827
3.28914404 0.47094521 -0.28658402
4.04982376 1.74815691 0.88668144
3.35815644 1.82501841 0.19009048
2.64064193 0.10713071 0.35199758
1.86215115 1.21542931 -0.39842322
3.67683005 0.28880084 -0.36981919
3.93888044 1.21584404 0.54567200
2.99019051 0.17006370 -0.15994023
3.91794205 -1.23512423 0.74952435
2.27504468 0.08472113 0.48901388
3.51717925 0.72944808 -0.45289201
2.50854921 0.56323814 0.91335028
3.81496167 -1.51274598 0.37187740
3.81007743 -0.88121003 0.60597968
2.10962152 1.45743775 -0.53277743
3.04459405 -0.19815353 -0.81044495
2.49198198 1.58355951 -0.99778211
3.16879272 0.25824800 -0.50441974
3.07927299 1.73551166 0.29006684
2.71985769 0.18374918 0.03956484
3.96263123 -1.35075295 0.14577457
2.58816290 0.40759510 0.28748393
2.46048379 0.27219105 0.63296384
3.98261333 1.47870994 0.77871615
3.66281724 -1.13824570 0.59628260
3.59261227 1.76455557 -0.19311327
3.07071829 0.43566623 -0.11374128
3.78525424 1.14723742 0.78415138
3.72559071 -1.48003912 0.65621579
3.23512697 1.75166416 -0.04660153
2.23340702 1.49844384 -0.76290935
3.43553090 0.14153503 -0.45266050
3.72905946 0.61943358 -0.36806187
3.18017530 1.48358977 0.09897226
1.94054234 1.18782938 -0.66665649
2.97945237 1.77799332 -0.06533634
3.52048635 0.49146584 -0.41271171
3.37691331 0.34887969 -0.58311158
2.43610382 0.23875250 0.39755416
2.43731427 0.05906563 0.69312888
3.91245103 1.59336507 0.96657616
3.17068577 0.18467608 -0.29877838
3.91430545 -1.46751678 0.75798988
3.87576246 -1.30712962 0.42057520
3.63454151 -1.61904263 0.35567719
3.86407638 -1.03819239 0.72796363
2.00560975 1.35595834 -0.39132077
3.69708276 -1.32972169 0.52617097
3.96120119 -0.94502163 0.44068906
3.85685492 1.39532733 0.94846094
3.96959901 1.09728515 0.73637205
2.53633213 0.51642424 0.72751111
2.34376454 0.38555920 0.72934234
2.67824554 0.35586190 0.10418374
3.84561205 -1.59386766 0.13259181
3.99691033 -0.86746252 0.77692366
2.59945273 0.23064034 0.22547041
2.43092513 0.40832072 0.46058387
3.72165227 -1.15547955 0.43127820
2.44513130 0.11065541 0.51451051
2.71728945 0.08683977 0.18075745
3.16155839 0.35860616 -0.27556577
3.96774030 -1.22621703 0.91199845
3.30227017 0.40348765 -0.44128188
2.09913540 1.41516304 -0.70319498
3.03517818 1.75023544 0.12788954
3.75360894 -1.01334524 0.52283251
3.95456529 1.34176064 0.65258092
2.86467457 0.13935611 -0.02803206
2.95006394 0.32154876 -0.11346668
3.94124413 -1.49223030 0.22050741
2.76056671 0.33878639 -0.03208044
3.50917125 0.26595885 -0.51679468
2.73036551 0.49930471 0.17719445
3.66997290 0.47023740 -0.37945363
3.62619543 0.14566973 -0.37726301
3.02437663 0.28310400 -0.25504920
3.24364567 1.74594879 0.13180323
3.30386853 0.19663206 -0.47865736
3.60458636 0.37527132 -0.46245140
2.00779819 1.31156516 -0.52624363
3.73910952 1.87284553 -0.17186886
3.69419479 0.74635130 -0.32338294
3.92193508 1.31218290 0.85950136
3.49223924 1.79549968 0.19744386
2.91760182 0.46679971 -0.04357621
3.60259676 -1.42819750 0.51171833
3.36264110 1.74597561 0.06360522
3.85427618 1.24652851 0.64879388
3.68722057 1.83877575 -0.05122982
2.15403199 1.39912856 -0.83010811
3.74538207 -1.24199343 0.61526501
2.52318716 0.49533635 0.41904452
2.42555285 0.41085473 0.63053346
2.53141189 0.15104982 0.41190147
3.42845058 0.57175493 -0.45449948
2.02761102 1.31227005 -0.67884451
2.41935158 0.29099548 0.51362669
3.83496594 -1.22684956 0.33014533
3.88387203 -0.86347222 0.71982747
3.94520974 -1.38597608 0.28736728
2.51365376 0.32631856 0.34603411
3.20166373 1.72991276 0.30027241
3.37171125 0.49398002 -0.37993619
3.21391034 0.48155737 -0.19201846
3.26203156 0.27924776 -0.57808679
2.41006470 0.07678692 0.80882382
3.67920756 -1.58739507 0.62924695
4.01526499 1.65773046 0.95680809
3.85912037 -1.01593804 0.43266565
3.09702730 0.24014077 -0.41290346
2.64678788 0.50815779 0.30213058
2.42678046 0.16024916 0.63244188
3.76189709 -0.93878102 0.69537991
2.88358903 0.22168627 -0.10852666
3.88271618 -0.92414939 0.52318275
3.83573723 -1.14961219 0.72339290
3.95988607 1.56576395 0.86651701
2.65084028 0.23953241 0.11109055
3.65764189 -1.02256203 0.57814807
3.23082018 0.36569238 -0.36219215
3.97558618 1.15389895 0.64125293
3.91046071 -1.35783827 0.74253982
3.55184364 -1.58543158 0.42132178
3.86324883 1.07433581 0.81360877
3.91764593 1.43135858 0.85143024
3.09019136 0.35373035 -0.19470166
3.86360312 -1.41396642 0.42315507
3.96702719 1.21486533 0.85761333
2.37550449 0.28328145 0.72464997
3.07007003 0.18666281 -0.26075837
3.68994069 -1.37786400 0.62008768
3.33566666 1.72454834 -0.04795788
3.95541859 1.36791050 0.75144762
3.86761618 1.14647532 0.72383571
2.70441961 0.28414804 0.03612151
3.86557269 1.50475013 0.95059353
2.65705752 0.14648527 0.23624028
2.50368667 0.58185196 0.79648107
2.51532078 0.22244695 0.33855617
2.05809212 1.41265655 -0.45483986
3.99124360 -0.79112619 0.83887023
3.93402791 -1.54463089 0.13775471
3.73339438 -0.94558418 0.59058630
2.50208521 0.58474016 0.66667479
3.78671813 -1.08286917 0.42599097
2.58916998 0.32693085 0.22638719
3.94592524 -1.27738535 0.83202511
2.40013576 0.19617635 0.50844002
2.06003928 1.38999045 -0.61901623
2.74800372 0.40705487 0.03584842
3.85851693 0.78345078 -0.16253869
3.19383788 0.19991717 -0.43313998
3.95576763 1.10887265 0.83005977
3.66251755 -1.17686975 0.50288177
3.90397286 1.31362963 0.96100444
3.18926573 0.31716046 -0.43275285
2.78000760 0.18851426 -0.03374881
2.47100139 0.48329982 0.58901894
2.95841789 0.25624597 -0.18072107
3.68559551 -1.08455837 0.51370990
2.83009911 0.42098546 -0.02702554
3.87384486 -1.58543909 0.04547964
3.79743910 1.20208514 0.70697200
3.29917502 1.79587460 0.25287342
3.87544584 -1.34358132 0.33762372
3.12891817 0.30822331 -0.34325498
3.04609179 0.24257158 -0.33281362
3.26708698 1.73264945 0.04639965
3.56128931 0.56912184 -0.43031439
3.14380622 0.42659977 -0.19383907
3.92458224 -1.44670618 0.14604670
2.67654276 0.42093256 0.16456443
3.42649269 1.77183068 0.11848073
3.10393572 1.74686170 0.18258975
2.41640615 0.14163664 0.74990267
2.74232030 0.10740442 0.09946511
2.56993484 0.46093461 0.35402417
2.15105820 1.48650920 -0.73892653
2.40311074 0.35283893 0.57130712
3.94476843 1.30064583 0.55714369
2.05174875 1.37080419 -0.76281613
2.10770035 1.47028577 -0.61697233
2.63934040 0.45071685 0.23508333
3.92114997 -1.54672146 0.78778452
3.20098758 1.77231181 0.22720903
2.91443443 1.76614738 -0.01341987
2.60606289 0.18002006 0.29328001
3.26687264 0.33797687 -0.51926976
3.01373601 0.37547618 -0.11812915
2.79526520 0.14803302 0.03690280
3.93122864 -1.32898688 0.21914591
2.45744181 0.35513625 0.39938936
2.94576430 0.15817592 -0.09134296
3.11859322 1.47620964 0.04453101
3.69854569 1.90631378 -0.10827653
2.68264937 0.16271427 0.11153951
2.73277497 0.45112714 0.11057357
3.20421553 0.42848027 -0.27403581
2.54818773 0.28102791 0.28736058
3.86145782 1.27920175 0.72340673
3.37531781 0.45489737 -0.45102537
3.30270338 0.45440143 -0.36433041
2.99355388 0.20855503 -0.24854356
3.84206104 -1.23549712 0.43338624
2.43877268 0.15777731 0.44974872
3.79884815 -1.47700107 0.68824559
2.62514448 0.29292595 0.16408534
3.89728713 1.18040597 0.63923246
2.56710196 0.56156474 0.86042178
2.42464590 0.23821098 0.57164800
2.47219443 1.58679128 -0.92183530
2.72864318 0.25572252 -0.03285658
2.44727755 0.44486597 0.52617258
3.67101908 -1.45348322 0.60925353
3.69878340 -1.30262399 0.61283833
3.76177549 -1.29000044 0.52510595
2.64585686 0.19226813 0.17043655
2.46640778 0.48494348 0.46669188
3.33165145 0.26841062 -0.59992719
3.12987113 0.20454469 -0.35662919
4.03496742 -0.73477459 0.87070310
2.53111839 0.39765149 0.34520146
3.44118309 0.51059169 -0.41672981
3.81364083 -0.97369957 0.52749014
2.41369987 0.08282717 0.57299763
3.82078075 -0.89338887 0.70340097
2.19862556 1.44726634 -0.79887319
3.04345751 -0.25135091 -0.76320863
2.37389421 0.35168514 0.67492747
3.61683512 -1.08012545 0.57479703
3.97298408 1.62237501 0.90667099
3.10152149 0.32349747 -0.26352444
2.47129965 0.43271858 0.40812755
2.58446860 0.15352409 0.35493198
3.05726719 0.15704075 -0.19820634
3.25094557 0.35560018 -0.44530213
2.40602183 0.28649873 0.44478720
3.93813896 1.50200164 0.84696913
3.84112763 -1.58789968 0.20230928
2.64222813 0.36062694 0.16676460
3.80740309 -1.08665860 0.71682841
3.66397786 1.84278882 -0.11638981
3.23606396 0.24165332 -0.50438881
3.83356690 -1.15961063 0.34503239
3.87655401 -0.86926359 0.61840206
2.40614080 0.16053396 0.56675029
3.87933421 -1.29100168 0.74107635
3.03214478 0.31878203 -0.18555489
2.09993482 1.34910250 -0.86014915
3.13482380 1.73698688 0.24276309
2.43542600 0.23763569 0.68594277
3.69685340 -1.60430038 0.33444753
3.54291582 -1.48662078 0.51033318
3.43583250 1.77265918 0.22551331
2.03872371 1.36100078 -0.56344062
3.94415641 -1.42644954 0.21581170
2.56057835 0.34776393 0.28888553
2.71588039 0.34984213 0.03729076
3.22954321 0.22401130 -0.59178662
2.39956522 0.08201093 0.92054111
2.50490904 0.57647812 0.73139483
2.68175030 0.49956596 0.24393083
2.38104391 0.10228627 0.50621247
2.50130033 0.57456118 0.59918302
3.93570209 -1.57057643 0.03666299
2.41549325 0.33018494 0.63115382
2.44286203 0.05775604 0.75721502
2.41444206 0.37274361 0.51185572
2.44206119 0.29910308 0.57796448
2.42094421 0.12036651 0.68907696
3.64936042 -1.38591313 0.51876998
2.43403888 0.07787893 0.63276744
2.67993498 0.13916126 0.17475902
3.64890027 1.75123227 -0.21862555
3.94633627 -0.85615718 0.72580862
2.39976239 0.21354353 0.44780451
3.75704241 1.83698082 -0.12331960
2.45926952 0.50576502 0.52473754
2.38530684 0.10446484 0.85837823
3.24993205 0.47013524 -0.23982316
2.02501392 1.34104455 -0.47600776
2.90522718 0.27839133 -0.10709460
2.52029872 0.51827663 0.66899002
3.68748522 -1.51653397 0.62633467
2.54018879 0.53369367 0.80060834
2.42535520 0.34823897 0.45600957
2.66577435 0.29683852 0.09942269
3.07267499 1.79406726 0.16172266
2.07242274 1.41360545 -0.51449704
2.46864438 0.17753093 0.40129441
3.88362527 -1.41683388 0.74719095
2.50506020 0.55867630 0.85344404
2.51036191 0.13302118 0.46511066
2.50356817 0.53075802 0.48526889
3.91245079 1.37206697 0.84911305
3.25641060 0.41845137 -0.35338062
2.56549954 0.22245193 0.28848344
2.58547997 0.12355924 0.40551689
3.87411666 -1.19393897 0.72610617
3.27920175 1.70961201 -0.04640318
2.88833785 0.16386497 -0.09928466
3.22168016 0.30387598 -0.50601161
2.08772039 1.40921700 -0.57007223
2.08178830 1.38162041 -0.81602794
2.44366074 0.29591584 0.39867592
2.13589621 1.43860483 -0.79219329
2.60097098 0.38251418 0.23483993
2.53212595 1.62397420 -0.99099827
2.37983227 0.40733060 0.68683124
3.93515658 1.28881824 0.64313996
3.31603861 0.31664544 -0.57469577
2.64335752 0.13118832 0.30080515
2.94959927 0.19851649 -0.18674009
3.97121716 1.41856503 0.77019304
3.21515036 0.26303852 -0.55213314
2.40500689 0.13359618 0.80359143
3.90532899 -0.98554480 0.43242556
3.79930449 -1.47197497 0.40569824
3.90231681 1.10681605 0.79259211
2.69717193 0.40729380 0.10721392
2.44652200 0.42541155 0.58194911
3.83367634 1.19502604 0.74726415
2.86887074 0.45764118 -0.01871436
2.03917336 1.34088027 -0.62332910
2.62258387 0.46247643 0.28447589
3.13952827 0.24286640 -0.44512424
3.96852946 -0.80945587 0.79419971
2.05794501 1.38328958 -0.67144203
2.13602209 1.50102127 -0.58475983
3.27676511 0.20461193 -0.52316546
1.89806116 1.17817616 -0.40754494
3.85234404 1.45509696 0.94033045
3.93564320 1.26197731 0.86303955
2.41405082 0.28715929 0.68982440
2.69073367 0.22690067 0.04071972
3.92495751 -0.89679384 0.53644156
3.18123555 0.43811002 -0.22788078
3.70353055 1.83546770 -0.17558891
3.34956455 1.78774440 0.24474607
3.69341159 -0.97650075 0.58050275
2.74605083 1.71154833 -0.80837566
2.63892841 0.24358137 0.16538432
3.52303982 -1.58131123 0.50726861
2.62946367 0.18938661 0.22906438
3.78432775 -0.92516613 0.60474056
3.92483592 1.32956731 0.73800164
3.73807001 1.91693449 -0.07814987
3.95222545 -1.36836445 0.76923108
2.50833821 0.27248847 0.34218785
2.84023857 0.13191245 0.02030329
3.94288802 -1.39705598 0.14748392
2.49828744 0.51502001 0.90369529
3.22295213 1.72468638 0.06854971
3.89665771 1.54787230 0.95352352
2.40790153 0.14377394 0.51283681
2.35064220 0.33647877 0.72568184
3.29083753 1.75506628 -0.03067477
2.78754401 0.37831959 -0.01966688
3.92714238 -1.28532624 0.75182527
2.68500614 0.10649782 0.24146818
3.08584261 0.28561622 -0.33702084
3.89381337 -1.35245681 0.42114878
2.58624077 0.27738360 0.22999911
2.47961688 0.53126311 0.59031653
3.91300511 1.13417280 0.73612845
3.82521200 -1.05340266 0.42305708
3.82245588 -1.01389456 0.72323138
2.54827189 0.18932261 0.35102755
2.82089090 0.15810984 -0.02165185
3.15184546 0.21087527 -0.41145095
3.56353235 0.47954604 -0.43022847
2.41311502 0.24352728 0.51130056
3.27948666 1.77125847 0.11278833
3.35174298 0.45847169 -0.40477732
2.69856763 0.46167630 0.17543872
3.14928889 0.29331884 -0.42311636
3.66273260 -1.13094807 0.51387924
2.77738667 0.44360569 0.03820568
3.71594954 -1.04930711 0.51548910
3.08847594 0.19792765 -0.33640909
3.12588000 0.38372821 -0.19606330
3.99562860 -0.73496461 0.82912755
3.69266629 -1.17309356 0.58903676
3.64734101 0.26486748 -0.34310076
3.25260496 0.44303563 -0.29197747
3.89737105 -1.51004660 0.76273179
3.78224564 -0.97927904 0.70313060
3.76073122 -1.11984015 0.41787905
2.59259176 0.50058913 0.35719296
2.98766303 0.29135656 -0.18136372
2.03421783 1.37578297 -0.44320720
2.01862502 1.34051979 -0.76716626
3.28403735 1.73060322 0.08808757
4.00769424 1.67645264 0.91661870
2.39823914 0.37575021 0.62456536
2.39558792 0.15525897 0.67705345
3.10734630 0.45922691 -0.12403102
2.10733175 1.44882214 -0.57678366
3.90752959 -1.57876933 0.12671037
3.87377882 1.35692132 0.96285802
2.73671913 0.29848188 -0.02624889
3.19421983 0.34302759 -0.35362828
2.76278543 0.48311409 0.11109509
3.10457611 1.71834052 0.21713759
2.42385149 0.09859234 0.75222933
3.92418718 -1.49019647 0.14613608
2.74444795 0.21528582 -0.03385069
2.95759368 1.76423728 -0.01039473
3.80341387 1.11377215 0.80411285
3.11078072 0.17654428 -0.25137007
2.08320642 1.39970016 -0.76631624
2.10385108 1.44302940 -0.73537421
3.05327463 0.20429614 -0.29579142
3.14683986 1.50604987 0.03381548
3.47619581 1.80005658 0.23647499
2.42576075 0.24797481 0.63168699
3.93381786 1.28364491 0.96051419
2.02706218 1.39216530 -0.39505008
2.19100595 1.49315274 -0.75047874
3.33587551 0.42760941 -0.44914973
2.39884543 0.14431180 0.85919034
2.41910815 0.11692935 0.62894636
2.44235802 0.45060155 0.46488440
3.39262247 0.48114392 -0.41376868
3.02567363 0.41276550 -0.10514003
2.42397738 0.12356298 0.57005596
3.44228292 1.80847585 0.12783653
3.36973000 0.28205204 -0.60502255
2.71430802 0.13649482 0.10490787
2.75927210 0.17550342 0.03497211
2.65900564 0.20021895 0.10567994
3.80136108 -0.93968225 0.68657446
3.73868012 -1.20289660 0.60887671
2.96997833 0.15917775 -0.12310801
3.00261140 0.24996600 -0.25905985
3.10008860 0.21732777 -0.38047320
3.83153725 1.15405178 0.73854291
3.03089118 0.18896936 -0.25505573
2.41491032 0.20118657 0.56251162
2.40921712 0.32894129 0.51143557
2.61539817 0.41988739 0.23114617
2.53700352 0.53625923 0.85637277
3.33527660 0.19488159 -0.50193006
3.68949962 -1.36676145 0.51613414
2.38823462 0.31766713 0.68687338
3.00849938 1.75768518 -0.08107412
2.45991087 0.39378861 0.39747578
3.40742159 0.52608180 -0.40651500
3.87247491 1.21280706 0.64499164
3.64306355 -1.10557497 0.59243584
3.84166026 -1.11371672 0.73523277
2.43318391 0.40543148 0.51844847
3.28705120 0.45936230 -0.33000034
3.05931115 1.72136986 0.12417317
3.86167932 -1.34162199 0.40499601
2.39582801 0.25093645 0.45049092
2.49689031 0.46983078 0.41185898
3.85817099 -1.26828921 0.42572576
2.49837756 1.61183918 -0.93016142
3.18353462 0.38835013 -0.27441597
2.60916734 0.12560084 0.35636181
4.01931858 -0.76167512 0.85143501
3.28092504 0.37677225 -0.45412409
2.52502489 0.36178121 0.34601423
3.73233151 -1.32246399 0.52261567
3.11521697 1.73872876 0.29090220
2.02293348 1.33449328 -0.80247957
3.44126964 1.80752051 0.21857788
3.71800423 -1.27280772 0.61849982
3.19132471 0.28588098 -0.50078470
2.44687843 0.20499140 0.39558652
2.07024860 1.32984293 -0.85755360
3.32434082 1.83375871 0.19604932
2.44162297 0.30214119 0.63452971
2.06833839 1.38101542 -0.56098467
3.18874788 0.23299623 -0.51908612
3.84021497 -0.95049024 0.52536321
3.96331167 1.19045901 0.54763407
2.99010897 1.53242373 -0.00561256
3.34643888 0.47126481 -0.37072361
3.03094339 0.17665878 -0.21066061
2.43756652 0.18974543 0.64811367
3.94407201 1.16919303 0.64335340
2.22865796 1.46679854 -0.77725834
3.93678617 1.26676333 0.56027281
3.11577320 0.26917711 -0.41196260
2.04855323 1.35484493 -0.81350940
3.58186245 -1.45575857 0.51139069
3.64123201 -1.05830657 0.58548033
2.66603708 0.38481373 0.16109392
3.97116733 1.59794950 0.88254488
3.68587804 -1.34679461 0.60624635
3.87119484 -1.37790847 0.42211908
2.59764194 0.44128156 0.29373223
2.50129795 0.55077285 0.66688377
2.41162348 0.18183124 0.44518605
3.85850573 -0.88003498 0.70473647
2.41586399 0.38388085 0.57514960
2.44183803 0.26552719 0.58146608
2.50206470 0.16623002 0.40514126
2.03389430 1.34112310 -0.53664303
2.02935553 1.34634674 -0.42778018
3.07871675 1.76227129 0.15279090
3.52214527 -1.51312566 0.50885153
2.62921619 0.32541570 0.17078483
2.54793763 0.31443632 0.28788567
2.55394816 0.41954330 0.35574505
3.85919952 -1.13107538 0.34595975
2.51645970 0.54309988 0.72559381
2.98049545 1.75503707 -0.04125737
2.40140963 0.11631933 0.53031331
2.56903172 0.37980735 0.28919619
3.94416952 -1.39350259 0.21935087
2.41038060 0.32058263 0.57311618
3.16910815 0.23083159 -0.43138006
2.41197133 0.31803772 0.45713937
3.29807544 0.22306676 -0.50607365
3.93703389 -1.35913551 0.20742424
3.94348121 1.53417647 0.84894282
3.05493236 0.21160220 -0.32791865
2.70124412 0.11457735 0.17567953
3.87931752 -1.32338345 0.74226594
2.88330269 0.25378776 -0.10478570
3.84100318 -0.88456690 0.61472130
3.68896508 -1.55660796 0.62831950
2.29459238 0.10007155 0.50963593
3.94406247 -1.45828044 0.22123481
2.46617913 0.45096502 0.58155417
3.43618989 0.53582853 -0.39595580
2.72833014 0.37901938 0.04191804
3.93165493 1.47111821 0.85172367
3.88591838 -1.38547611 0.74308646
3.83200455 -1.19548130 0.33301032
2.51453042 0.55255115 0.79198664
2.38546753 0.11369795 0.91687196
2.66123605 0.16496962 0.17152540
2.55652046 0.13441126 0.42051277
3.15145040 0.19444954 -0.32127732
3.22886467 0.50494623 -0.20615372
2.12515211 1.38749158 -0.82929033
2.92560005 0.30191809 -0.10671887
2.42958999 0.08915931 0.69216698
2.04966617 1.39437652 -0.50591767
3.12741423 0.23226216 -0.41862950
2.80665421 0.40113363 -0.03027593
3.97565055 1.44867694 0.77902901
3.47673249 1.77146399 0.18598500
3.90684104 -1.57412636 0.04665875
2.70592093 0.32086402 0.03613535
2.99315357 0.35288063 -0.12028517
3.83476448 1.08553362 0.81265908
3.89345264 -1.21442032 0.73800415
3.93124986 -0.96960616 0.43522900
2.38622546 0.07411055 0.85668576
3.25083709 0.38948759 -0.36067909
3.20679712 0.47193426 -0.21987554
2.49037027 0.50788248 0.47050506
3.82159901 1.17893946 0.72455132
2.16583729 1.42141140 -0.81356078
3.78675580 -0.98699868 0.52527851
3.96847010 -0.83823168 0.73525929
3.24319434 0.48561266 -0.18740059
3.88015771 -1.57859039 0.13875571
3.16252542 0.24600418 -0.46395373
2.69709349 0.25523102 0.03399670
2.96461868 0.17234048 -0.17491212
3.19492102 0.26349407 -0.53040224
3.68143821 -1.48797250 0.62113172
2.67231703 0.32566494 0.10079769
2.42149663 0.14979306 0.69207191
3.95820045 1.26137781 0.96194625
2.55218673 0.24860150 0.28524113
3.22300005 0.26755199 -0.58009678
2.47514915 0.53046739 0.52558017
3.09851670 1.72177124 0.24562506
2.39995408 0.10340099 0.80193967
3.31965184 0.17233849 -0.47910357
3.91175103 1.33903992 0.85626948
2.44112396 0.26490498 0.69314945
2.59644270 0.35406864 0.23258601
2.53421307 0.49668658 0.68173575
2.11762619 1.36149263 -0.84144276
3.68310499 -1.00030398 0.59238499
3.24658108 1.73199940 0.08274242
3.75827980 -0.94321454 0.60426551
2.44156551 0.08274283 0.57867426
2.94847369 0.22673756 -0.18350750
2.45738053 0.32726771 0.39400786
2.62456465 0.15864992 0.29108346
2.43205023 0.38039139 0.45601198
3.81464839 -0.91405284 0.68504065
3.67029858 -1.61207604 0.34020677
2.04633474 1.36529768 -0.61104447
3.94823432 1.11573422 0.73733252
3.92093372 -1.52058721 0.77397817
3.96698761 1.39172196 0.76290530
2.50419593 0.58664662 0.85396481
3.91404200 1.39995193 0.84817702
2.45054030 0.47946870 0.52124333
3.07300162 0.21628663 -0.35064587
2.39592123 0.35020003 0.63519806
3.28055620 0.43175051 -0.35603139
3.93164420 -1.42163408 0.15534858
3.15726328 1.74816060 0.25389498
3.27239609 0.23031066 -0.51240659
2.89871550 0.46355447 -0.02405087
3.88520217 1.08279943 0.79969972
3.27956343 0.29993439 -0.57485247
3.27963018 1.75550604 -0.05557383
3.04824448 0.29560822 -0.25940183
2.44486189 0.26868975 0.39751983
3.95337534 1.24230599 0.85699254
3.24300265 0.31859148 -0.51401860
2.62342453 0.48280704 0.30226123
2.11704731 1.46967506 -0.59095120
3.78507614 -0.92047739 0.69620335
3.74017549 -1.13191175 0.43032306
3.16929078 1.49047232 0.07552959
3.93302870 1.24137688 0.55281907
2.00261068 1.33078897 -0.39978456
3.35237217 0.10587088 -0.68878132
2.50433111 0.30156249 0.34497932
3.97259712 -0.80133981 0.82328743
2.07118201 1.37987566 -0.74755532
2.03550029 1.34048545 -0.74698097
2.65234256 0.26552692 0.10749252
2.40056849 0.16771907 0.50515676
2.64360952 0.21803939 0.16255105
3.05324435 0.33379683 -0.18875039
2.68716121 0.38348386 0.10357130
3.45582533 0.53214592 -0.41702959
3.67495680 -1.42814291 0.60497946
3.38144135 0.47597307 -0.43720895
2.88505793 0.18685505 -0.11057281
2.63069534 0.26797974 0.16126972
3.85069013 1.43019426 0.94634777
3.62973309 -1.40190363 0.51491725
2.79517150 0.17043403 -0.02383471
2.45060873 0.24927130 0.62571102
3.85892677 1.47966170 0.93757188
3.82238913 -1.12784564 0.72225690
3.80413008 -0.90905511 0.60392970
2.65668130 0.46857175 0.24075615
2.36476254 0.30607164 0.72805661
3.36818385 0.48803213 -0.41257119
3.71396351 -0.97433352 0.59524161
3.89003634 1.33459914 0.96396935
1.87972534 1.19937849 -0.40712747
2.99407911 0.16144773 -0.13042834
3.67098618 -1.10737753 0.51010692
2.09669971 1.43640077 -0.52773994
2.34740663 0.36115098 0.72260678
3.63271475 1.76066661 -0.20198029
3.84616899 -1.02085924 0.72700256
2.71657515 0.43408486 0.10228357
3.16089272 0.43873671 -0.20731193
3.90399575 1.57077539 0.96039987
3.73321605 -1.03219259 0.52061737
3.23370171 0.43570217 -0.27765396
3.08040380 0.31069604 -0.26246995
3.92402172 -1.56130791 0.12095644
2.58596039 0.30275601 0.23028402
3.51717186 -1.55190361 0.50419253
2.50524712 0.55743921 0.88959754
3.87232637 -1.32269120 0.35029477
3.93840861 -1.52306688 0.14879556
3.83994198 -1.03485084 0.42972022
3.90513515 -0.91533339 0.52818739
3.25814390 1.71647429 0.06768867
2.79823637 0.45643085 0.03899154
3.25111437 0.47162563 -0.21546775
3.12834096 0.40736043 -0.19060472
3.06452441 0.27435076 -0.33351439
2.41192365 0.21920183 0.51155066
2.97026849 0.33487850 -0.11351514
2.11091161 1.46588302 -0.64047939
3.35485744 0.44280779 -0.45517233
2.74157739 0.08759322 0.11312873
3.89085555 -1.53276575 0.76721114
2.70111322 0.19861853 0.04193494
3.33433795 0.29068267 -0.59129339
3.65104055 -1.16247511 0.51805353
3.92742801 1.28916740 0.86248666
2.41797948 0.26683897 0.51088142
3.26713252 0.47851810 -0.25391915
2.51388144 0.24592261 0.34175137
2.48841667 0.55543673 0.59377217
2.92610264 1.75743151 -0.03206454
2.52735949 0.19928589 0.34624061
3.04548597 0.19063969 -0.27353701
3.04774976 0.41659296 -0.11234073
3.84865260 -1.16910267 0.72602129
3.95041275 -1.37516999 0.15169862
2.47647738 0.50596631 0.58593440
2.01551533 1.32926416 -0.68954647
3.99386001 1.65764248 0.91548413
3.69970465 -1.06598318 0.51226878
2.45707536 0.22846682 0.39768672
3.17306519 0.20823324 -0.42661065
2.76174593 0.42582443 0.03597154
2.77537751 0.35989067 -0.02692044
3.70842671 -1.34708250 0.51567972
3.77580261 -1.10219336 0.41859996
2.64248967 0.16439837 0.23411867
3.07962418 0.19626652 -0.27956209
3.18599415 0.41434824 -0.27182454
3.88632345 1.52730918 0.95096600
2.59274721 0.19636080 0.28373593
2.98536563 1.75963819 -0.07808104
2.43078184 0.10086213 0.56925219
3.84189129 1.17362773 0.74498880
3.21001101 0.32700354 -0.43099102
2.50729704 0.54106915 0.90731722
3.80495501 1.13051891 0.78846329
3.17613077 0.25121337 -0.48160708
2.59117460 0.25520962 0.22769095
3.14977527 0.31741989 -0.34198961
2.81964612 0.13789973 0.02807059
3.89064789 -1.43818688 0.75072879
3.28290129 1.71761012 0.05278020
2.84627604 0.13757947 -0.01500453
3.91835070 1.17405629 0.64436889
3.19631648 0.44923854 -0.21541551
3.71731782 -1.46004784 0.65014684
3.88542700 1.23035240 0.65012741
2.60659313 0.20966563 0.22822496
2.63840842 0.48213485 0.28573716
2.43004370 0.40071839 0.57838285
3.74513245 -1.30457985 0.52635443
3.17243767 0.23642381 -0.50411284
2.56288171 0.17328495 0.35457447
2.42339849 0.13901743 0.62824672
2.21056318 1.49744260 -0.75931191
2.74892473 0.46578038 0.10890171
2.17033672 1.43733728 -0.79932797
3.63703871 -1.08588040 0.58069092
2.51543617 0.53669238 0.85316241
2.43527436 0.43035299 0.46106100
3.11577630 0.20148665 -0.34035102
2.39459515 0.09753276 0.90554786
2.43070245 0.07572570 0.75590175
2.83435082 0.44023117 -0.03606299
3.68860173 -1.32107961 0.60787815
2.68681455 0.43987635 0.16363153
2.36242008 0.37659127 0.72142297
3.29719257 0.47241503 -0.30651164
3.93915701 1.34338677 0.74617773
3.85330081 -1.41852915 0.40487590
3.89255476 -1.31990921 0.41679963
3.10946989 0.20722893 -0.36261648
2.36993599 0.37227130 0.67883891
3.31651330 0.41836864 -0.44631076
2.24126792 1.47852325 -0.76489365
2.41663790 0.12045876 0.75002116
2.39184451 0.12508443 0.85374713
3.72874713 -1.25344884 0.62160003
2.45473933 0.28170115 0.58585387
2.45616770 0.15445912 0.46127111
3.89378595 1.13539112 0.72746599
3.89206481 -1.58438373 0.05761541
2.40604734 0.18211162 0.56151623
2.42511201 0.31646311 0.51730967
3.56031132 -1.47498834 0.51230729
3.82379150 -0.89691019 0.60828739
2.38452673 0.40357283 0.66674638
3.76123047 -0.92443025 0.59546810
3.23451114 0.25888181 -0.55884773
2.08877468 1.41387904 -0.72129607
2.13109446 1.49136615 -0.60256952
2.99332619 0.22853135 -0.25407875
3.78323436 -0.94668007 0.67941672
3.99017954 -0.71516389 0.82648295
3.82732677 -0.86914843 0.61293375
3.64411306 -1.04117668 0.57426697
2.72970724 0.12274500 0.10549421
3.05170608 0.17564681 -0.20520990
2.41364503 0.14130548 0.56830949
2.99939990 1.77473199 -0.06931124
3.81843138 -1.46769691 0.39936385
2.67213655 0.12248752 0.24166112
2.55250359 0.14007120 0.40123412
3.01811910 0.39502352 -0.11398016
2.04531598 1.39217222 -0.44837177
2.45567083 0.25073278 0.69519562
2.40994358 0.35293135 0.51001281
2.42750883 0.09695175 0.63039821
2.69662261 0.14799611 0.11129162
2.42232180 0.29861882 0.57350737
3.84862566 -1.14754605 0.33897147
2.09605360 1.45642269 -0.54770273
2.46382642 0.41423684 0.40496528
3.24126863 0.46084341 -0.25539351
2.18562603 1.42462838 -0.81285471
3.61165118 1.76031113 -0.18875471
3.74304080 -1.22226334 0.61026239
3.09099245 0.19344762 -0.26349738
2.66942501 0.17725223 0.10879115
2.60715294 0.40134418 0.23408802
2.45587254 0.46510577 0.46533853
2.49450445 0.18445699 0.40623671
2.40024948 0.30210173 0.68863738
2.05599070 1.37097502 -0.80513144
3.78067088 -0.90749776 0.59700179
3.72894239 -1.17025888 0.42063943
3.80150247 -1.07096624 0.42122039
3.86284208 1.38032389 0.95949376
3.81311536 1.19180799 0.71248358
2.50508595 0.53177899 0.66933411
3.78259563 -0.95986688 0.70219803
3.67036104 -1.01894665 0.59236616
2.41693068 0.22160453 0.56529242
2.05089188 1.34565675 -0.83682704
2.41878009 0.39282060 0.62875617
3.93936825 1.11207962 0.82033861
3.90712142 -1.49348104 0.76075846
3.52308583 -1.53195083 0.50479972
2.58523178 0.48299366 0.35438234
2.39685774 0.23189738 0.45307288
2.41884708 0.12806018 0.51133716
3.17109203 0.27595741 -0.49735171
2.62762737 0.43458402 0.23230021
2.54849672 0.54351890 0.86984551
2.44519496 0.42676654 0.52039027
2.93346119 1.76714301 -0.01409794
2.67282581 0.40278161 0.16008955
2.09435034 1.45026183 -0.59063119
3.29652929 0.38706985 -0.45073083
2.63310003 0.34393981 0.16985963
2.52503681 0.34108645 0.34904259
3.95217919 1.54971075 0.85504687
2.47855592 0.44990525 0.40700394
3.61669540 -1.41594887 0.51192486
3.65411997 -1.03781188 0.58962470
3.89510512 -1.40167105 0.74307400
3.14613080 0.34822494 -0.27488288
2.42358971 0.39079875 0.51233685
2.53476405 0.37958059 0.34663254
3.67100430 -1.00395811 0.57893723
3.26561046 0.36731753 -0.45016259
3.24646974 0.26943085 -0.57759839
3.18652296 0.22791332 -0.43633160
2.76328993 0.19588371 -0.03221355
3.05200982 0.26153880 -0.33003137
3.88977194 -0.99507177 0.43243724
2.72929978 0.28185201 -0.02526283
3.71891403 -0.95621037 0.58756989
3.38046026 0.48481873 -0.39286500
3.88209653 -1.27317619 0.73957771
3.87403059 -1.00568974 0.43240345
2.73801112 0.23211731 -0.03224966
3.21647143 0.25461441 -0.56806087
2.96701598 0.27156204 -0.17658013
2.46455812 0.21211213 0.39867035
3.92006755 -1.26956415 0.74679261
3.79925036 -0.90948939 0.69485140
2.40863228 0.05927724 0.80503303
3.84735084 1.15312314 0.73006606
2.49698520 0.56687677 0.66034728
3.04731965 0.18585764 -0.24904987
3.36235404 0.47259209 -0.40286848
2.41998434 0.14064491 0.67694622
2.41879678 0.16611716 0.44898498
2.51487064 0.59046507 0.73554617
3.82475185 1.20989633 0.74401009
3.86710668 -0.93185163 0.52040505
3.77921391 -0.94167447 0.69693220
2.44192433 0.25613904 0.63937974
3.96119952 1.16342497 0.63785607
2.62957835 0.14397198 0.29924178
2.65401840 0.22275385 0.10722028
2.58194661 0.20951116 0.28780830
3.19591784 0.25794289 -0.51386428
3.89243126 -1.31192064 0.74359661
3.17722344 0.44411251 -0.20426457
3.00465918 0.19518353 -0.25009808
3.03976750 0.17589688 -0.22569674
2.53140688 0.54508311 0.79076302
2.65069771 0.11652762 0.30665082
2.52326822 0.52798849 0.73085952
3.92541075 -1.46405005 0.14511977
2.45596147 0.28896856 0.63327056
3.87172127 -1.39492071 0.42506456
3.59321928 -1.44277787 0.51118433
3.74202609 -0.95385218 0.60298777
3.89553952 -1.36579823 0.73938829
3.31466436 1.79267836 0.24613690
3.04943633 0.20703399 -0.27672490
3.93072128 -1.34293771 0.22910027
2.42799759 0.25462860 0.57511723
2.87991142 0.45569673 -0.03161020
2.44998717 0.31199431 0.39561597
3.67402506 -1.37316644 0.51925063
3.86395025 -1.28423917 0.42428109
3.25116873 0.44859242 -0.27595425
2.40278912 0.26644254 0.45125505
2.53010154 0.55130744 0.85256022
3.21736026 0.35583287 -0.35901496
3.11508417 0.22119260 -0.41491279
2.92736959 0.46574217 -0.02978265
3.89945769 1.09138179 0.80274254
2.46053553 0.37700278 0.39571071
2.59208107 0.42373711 0.29050776
2.70458364 0.30407175 0.03514873
2.62336636 0.30937809 0.16738287
3.74902201 1.82701242 -0.13427942
2.85489035 0.12496933 0.01573194
2.54666877 0.40469673 0.35254380
2.57847214 0.39374611 0.28872600
3.72669721 -0.96429825 0.60009539
3.76678061 -1.00298798 0.52308178
2.55271268 0.33043164 0.28934306
2.90362549 0.15737209 -0.09714930
3.82606649 -0.96251142 0.52691436
2.54574227 0.29787603 0.28820720
2.46863985 0.46729553 0.58403140
3.78986907 1.12806904 0.79518610
3.93305802 -0.84634787 0.72708529
2.56417942 0.36398527 0.28952652
3.37248302 1.81722355 0.19280940
2.44878793 0.28391778 0.57060105
3.74669218 -0.93604243 0.59284163
2.63456154 0.49730486 0.30445090
2.64778757 0.49492010 0.29032281
2.70848179 0.09960885 0.18637545
3.14349651 0.23173122 -0.42223880
2.59510088 0.14360616 0.36262703
3.89941216 -1.34475279 0.40774888
3.06687737 1.78237951 0.15175125
2.75149655 0.32545781 -0.02905950
2.40701246 0.36874700 0.57160974
2.54828572 0.26474065 0.28569680
3.70558453 -0.96605241 0.58366197
2.44274235 0.22093928 0.39549881
3.10713100 1.73444426 0.21654503
2.06146550 1.39193976 -0.57094431
2.44866157 0.46395561 0.52584481
2.85658360 0.44703510 -0.01961929
3.79842162 -0.89144778 0.60115844
2.88224053 0.23740600 -0.10472745
3.01141906 0.27357656 -0.25290725
2.42857695 0.27105379 0.68490303
4.03055239 -0.75205255 0.85805768
3.68675828 -1.36016297 0.61532980
3.30828524 0.17215014 -0.46763736
2.21837020 1.45585513 -0.78316218
3.94301414 -1.47386026 0.22530854
3.87688351 -1.30752397 0.74395066
2.51324725 0.48322707 0.41519263
2.43526936 0.31346604 0.57551771
2.04976344 1.37473595 -0.62358427
2.50651431 0.56798244 0.78903109
2.60578442 0.45484722 0.29601175
2.70679212 0.42209634 0.10616075
1.99682868 1.33884621 -0.38729820
2.74035501 0.31372434 -0.02330941
3.11389828 0.23813370 -0.42470828
3.69135594 -1.53161335 0.62951976
2.56307030 0.44708121 0.35037738
2.54229164 0.14126775 0.41804200
2.44406104 0.25232595 0.39958531
2.40596151 0.33746672 0.56864071
3.70183182 -0.98421407 0.59271932
3.90410280 -1.52422523 0.76658291
3.13669705 0.21510050 -0.41029879
3.06773496 0.20830332 -0.33649692
3.92890406 -1.51054239 0.14774020
3.87227082 -1.12296700 0.34261829
2.28945994 0.09069708 0.48767942
2.06182861 1.40398228 -0.50810987
2.88017130 0.20153609 -0.10855678
2.97860694 1.54147828 -0.00021175
2.65430975 0.17885178 0.16993560
3.09480619 1.73662639 0.29059422
3.95190525 1.28853559 0.56386536
2.41276240 0.30402312 0.45039815
3.80442190 -1.10173213 0.71449816
3.12507844 1.73288107 0.23138219
2.69211745 0.21148905 0.03991159
2.41019964 0.19713575 0.44687346
2.68329096 0.49126726 0.23098667
3.68310356 -1.39163935 0.62105393
3.85159731 -0.94023645 0.52374518
2.34051442 0.34904549 0.72914571
3.18118429 0.24831863 -0.49984783
2.49828815 0.52002949 0.47554308
3.97278023 1.43374145 0.77697420
2.10212183 1.45607567 -0.61577523
3.85981750 1.23318470 0.65362704
3.08218527 0.44560316 -0.11508188
3.45072484 1.77103567 0.22282185
3.99418855 -0.75002033 0.83077294
3.83147216 -0.89928585 0.69434673
2.67654872 0.34016681 0.10210612
2.43296432 0.11947342 0.51275712
3.91092277 1.35396254 0.85412431
2.40997791 0.15866305 0.51412547
3.97990036 1.46387506 0.77832979
2.38532996 0.12985343 0.91300064
2.51757574 0.15616378 0.40892506
2.42498064 0.31933120 0.63544458
3.64438176 -1.12051880 0.59341651
2.50854921 0.52572876 0.90604919
2.45361137 0.19223268 0.39974761
3.62672925 -1.06915307 0.57215214
3.96757436 -0.80527580 0.80858099
2.42813253 0.17300802 0.64022201
2.05407858 1.33170807 -0.84133440
2.43960762 0.41207555 0.58047146
3.88817024 1.10483015 0.79696685
3.04850173 0.22490726 -0.33007985
3.91813684 -0.97656453 0.43361712
2.03525829 1.34192586 -0.79865056
2.91492271 0.28967959 -0.10659638
2.45276999 0.43883091 0.58329117
3.73058367 -1.14364624 0.43090162
2.44061160 0.25272107 0.68474269
2.95075393 0.24394064 -0.18360944
2.39941597 0.33657640 0.63067383
3.80035400 -0.97963178 0.52509731
2.55720258 0.43355685 0.35030350
3.83369112 1.16400731 0.72793376
3.88099551 1.20217431 0.63949597
2.09210110 1.44949913 -0.53236872
2.48770285 0.16869967 0.40642214
2.40462160 0.08956517 0.80132455
2.47441554 0.49696210 0.46865481
2.52920055 0.54443598 0.86547053
2.62047195 0.20073414 0.22855322
3.83125544 -1.21469963 0.33705702
2.38594055 0.09015916 0.85654777
2.66495061 0.13451716 0.23789871
2.08831954 1.34061348 -0.86127627
2.52559090 0.50683522 0.67600918
3.96858311 1.25148511 0.96319461
3.93544006 1.12157416 0.74036485
2.57350421 0.16483182 0.34982312
3.68408942 -1.50148714 0.62526733
3.90030336 -1.46671164 0.75485539
2.59858632 0.36836606 0.23457704
2.70182252 0.26876611 0.03432557
3.10157347 0.36240456 -0.19545457
2.42097592 0.13410677 0.69314229
2.65471148 0.37611780 0.16220012
2.78327012 0.15575469 0.03816723
2.55520964 0.23198390 0.28559372
2.50668406 0.28644383 0.34486783
3.94068670 1.24859738 0.86279285
2.01396871 1.33417261 -0.48191124
2.04805851 1.35161281 -0.55809265
2.68829274 0.12759034 0.17512529
3.29057431 0.20175894 -0.52525157
2.35708904 0.39006576 0.73149389
3.53175974 -1.49542236 0.50987619
3.23324156 1.73018801 0.07819770
2.66026282 0.27609050 0.10225574
3.91760802 -0.90703714 0.52993810
2.94830036 0.21261820 -0.18625148
3.94004846 1.28039563 0.55828851
2.01064777 1.34378147 -0.39642891
2.94663286 0.18772881 -0.17812277
2.40023851 0.18182059 0.50544804
2.57638693 0.12407699 0.41622245
2.89425731 0.26248893 -0.10540946
2.40345216 0.36567527 0.63267368
2.42393923 0.10159168 0.68945599
2.59270763 0.34106421 0.22930682
3.91546774 1.41373277 0.84944087
3.63794875 -1.05598021 0.57216638
2.90573740 0.46786156 -0.03648369
2.50160527 0.57303607 0.85358328
2.45656991 0.34144834 0.39765555
3.86153150 1.49356115 0.94356555
3.67185593 -1.46699214 0.61187756
2.52179074 0.21028867 0.33916518
3.74394274 -1.02301359 0.52128327
3.01635861 0.18819505 -0.25173277
3.84863186 -1.02467632 0.43239182
2.61783624 0.47155529 0.29695863
2.45429373 0.49247140 0.52257597
3.92421961 1.29327261 0.96043867
3.88379669 1.14363682 0.73152769
3.17804193 0.26179832 -0.51367313
2.97732496 0.27997309 -0.17913514
2.63611674 0.17538512 0.22947563
2.42173004 0.31328481 0.57273096
3.86494780 1.21962428 0.65383184
3.25114799 0.40250313 -0.35730845
3.02571034 0.37587500 -0.12418848
3.92224455 1.44385266 0.85312492
2.75003052 0.18108283 0.02709559
2.41992712 0.30450940 0.51434529
2.42027617 0.32846659 0.45649108
3.33690524 1.83056235 0.19288330
2.43111205 0.08499897 0.57074636
2.44333887 0.28176367 0.39567083
3.92044711 -1.53528512 0.79442894
3.17113590 0.36758021 -0.27685878
3.93006325 -1.33024180 0.23258020
2.42875981 0.36800230 0.45875430
3.93173504 1.27679622 0.86294150
2.07298517 1.39312398 -0.56284332
3.34064746 0.46221247 -0.37818521
2.67257643 0.30736816 0.09568658
2.64471912 0.20491427 0.16734098
3.95112991 -0.95315158 0.43891627
2.84355783 0.14329603 -0.02642368
3.95219970 1.19714272 0.54648209
3.11629915 0.37491864 -0.19631696
2.44560432 0.23767871 0.62879282
2.66777635 0.15474632 0.17613468
3.91315389 1.38701129 0.84864765
3.96646476 1.38004422 0.75730252
3.36977315 0.47161609 -0.43362290
3.96357012 1.57753682 0.87046462
3.99606919 -0.77910924 0.83882177
3.24695206 0.37874886 -0.36675936
3.86933303 1.36906207 0.96309590
3.97026896 1.40395033 0.76550055
2.44209814 0.15310560 0.46132067
3.69850135 -1.35751164 0.51631844
3.25587916 0.36208248 -0.45683500
2.51691794 0.54950541 0.85315907
2.10448384 1.44677961 -0.52765250
2.04095936 1.35341251 -0.62576097
3.32461572 0.19850856 -0.49565750
2.42478561 0.14795442 0.63738251
3.91087651 1.30304599 0.95867312
3.94074917 -0.96125889 0.43745705
2.48080063 0.54093444 0.53032756
2.61783361 0.16952536 0.29135635
2.06341314 1.38479662 -0.75643831
2.42218590 0.12759125 0.63526958
3.38826466 0.49313787 -0.41426644
3.68473339 -0.98573971 0.57913989
3.67321801 -1.44110107 0.60730588
2.74147987 0.39614248 0.03636236
3.98088622 -0.79878026 0.83258647
2.07748413 1.42240620 -0.52212495
3.94976807 1.27022481 0.95860404
3.80995131 -1.06266534 0.42566362
2.53774428 0.54451978 0.80665928
3.79425073 -0.91738605 0.60562211
2.13750792 1.38946533 -0.83102489
3.30600524 0.18384834 -0.47179520
3.77639675 -0.99491870 0.52423608
3.89653873 1.32392144 0.96251220
3.95545363 1.10546076 0.73662198
2.74454427 0.09487295 0.10333938
3.12746334 0.23739451 -0.43002850
3.12430811 0.27710471 -0.41649714
3.77067351 -0.91626728 0.59594494
3.85215020 1.41786873 0.94754547
2.82915878 0.13750052 0.01911814
3.70523763 -1.29226506 0.61534953
3.88060999 -1.11379004 0.34377649
3.63995504 -1.39391124 0.51719642
3.18314004 0.37704691 -0.27960652
3.30552697 0.21314843 -0.50704271
3.26680279 0.20608141 -0.51585782
2.82412553 0.48219100 0.04282708
2.42158556 0.27924073 0.51024705
2.73021889 0.18410528 0.03274342
3.64528894 -1.04694390 0.58827305
2.46534204 0.51655316 0.52497202
3.63071346 -1.07750511 0.58723694
3.78413963 -0.93448758 0.67763495
2.49428272 0.56626642 0.59294659
3.16582489 0.21429959 -0.43455684
3.96611118 1.22695494 0.85539907
2.72613621 0.49044925 0.16977309
3.34583902 0.46847838 -0.40881985
2.41830921 0.13423170 0.52196389
2.58742595 0.31484383 0.22773799
3.75068402 -1.12689090 0.41824070
2.23137426 1.48505843 -0.76806420
3.93342495 -1.53341138 0.14446343
2.71215820 0.33867431 0.03389115
3.66263628 -1.02833748 0.59094757
3.77203989 -0.93327618 0.69135422
2.43368816 0.06378313 0.75189525
2.06411505 1.37767529 -0.81127059
2.44888258 0.23748411 0.39801183
2.41169500 0.23159023 0.50963140
3.77454901 -0.93234134 0.60486239
2.69211769 0.24548103 0.03920492
2.47325778 0.49502853 0.59102386
2.65099835 0.25367817 0.10959740
2.88216567 0.46650627 -0.02668487
3.91476178 -1.56566334 0.04326851
3.65948129 -1.14223766 0.51667213
3.67965961 -1.09505165 0.51307952
2.45298338 0.26306057 0.63514572
3.83182907 -1.04365277 0.42522943
2.39237761 0.09733261 0.91732097
3.22083950 0.26709759 -0.56180918
2.78156161 0.36805931 -0.02038831
3.85173941 1.44326901 0.94139808
3.89512968 -0.92078972 0.52484500
2.49000430 0.46029550 0.41028568
3.04900885 0.19265509 -0.28467569
2.50848007 0.31222063 0.34186006
3.80822921 -0.92290688 0.68050563
3.28815985 0.38480434 -0.45891315
2.72664356 0.27078485 -0.02846505
3.18459773 0.40008968 -0.27365234
2.41034269 0.34124067 0.50843608
2.69295144 0.39644876 0.10916815
2.73308444 0.11144488 0.10558164
2.75476646 0.47471517 0.11388773
3.86431074 -1.04973149 0.73027575
3.18655682 0.45468265 -0.21907789
3.78663254 -0.92603695 0.68542165
3.94712234 -1.38483882 0.14590904
2.49986768 0.53194797 0.90117848
3.85578966 1.46603954 0.93814373
3.00511646 0.26406455 -0.25536609
3.72359490 -1.04120100 0.51893789
2.42848516 0.11311123 0.57255417
3.91787004 -1.57108665 0.11943773
2.01820159 1.31272948 -0.52113014
3.25613403 0.45251140 -0.28572288
3.19519067 0.42139873 -0.27080208
2.52555132 0.53213882 0.84967619
2.39278555 0.11441183 0.52275139
2.99779487 0.29700434 -0.18069993
3.92470312 1.30040646 0.86141551
3.69216776 -1.07477427 0.51144087
2.75876021 0.20648238 -0.03359699
2.75398922 0.41719741 0.03582003
2.48367310 0.54203796 0.59175301
3.77979112 -0.96769345 0.69412071
2.08176851 1.41969395 -0.51134723
2.68529463 0.42831251 0.16279325
3.69403696 -1.54643250 0.63053441
2.88384867 0.21218953 -0.10190868
3.73666620 -1.24329531 0.62273830
2.63120413 0.25210428 0.16438583
2.46281600 0.47445101 0.46350119
2.40322232 0.29146430 0.45482075
2.10667610 1.45984471 -0.62568104
3.87934637 1.34682977 0.96243048
2.50430918 0.55471706 0.90694535
2.53810501 0.38946882 0.35134593
3.87829185 -1.34928882 0.32813233
2.39555049 0.08697134 0.90974331
2.43196535 0.29324031 0.57635039
2.42198968 0.10979766 0.75235379
3.66562176 -1.12038648 0.51085693
2.63758683 0.11800294 0.35125518
2.51244545 0.23495485 0.33938196
2.50675249 0.26130420 0.34170932
3.84857512 -0.88059264 0.71010560
3.07272720 1.77282929 0.15030923
3.71269703 -1.28259683 0.61665785
3.00132990 0.36065289 -0.12056348
3.67727470 -0.99464869 0.57828557
3.67628956 -1.00922465 0.59190142
3.99208403 -0.70414484 0.82755065
3.15464735 0.43410257 -0.19922742
2.88912153 0.17152847 -0.10743284
2.63065004 0.28316781 0.16375834
3.18141460 0.23587832 -0.51111674
2.43075323 0.26545215 0.58300054
2.53745317 0.19904444 0.35106587
3.17969584 0.28139180 -0.50198269
3.20283890 0.26369378 -0.53828144
2.40793467 0.20412673 0.50919330
2.43104315 0.30995980 0.63533008
3.69092655 -0.99235177 0.59264451
2.41162276 0.38664910 0.62283498
2.73450041 0.38759047 0.03834828
3.92486334 -1.47909319 0.14632899
2.72109389 0.35956252 0.03869432
3.10021949 0.25057518 -0.41083971
3.18718195 0.26161581 -0.51993179
2.68191600 0.36606371 0.10191607
3.93731833 -1.40630352 0.14991322
3.68682027 -1.56743240 0.62902009
2.81143308 0.46726689 0.04045352
2.85365105 0.13961455 -0.02296849
3.10333109 0.23212776 -0.41711980
2.43017554 0.16466746 0.45014426
3.65632153 -1.15290546 0.51665902
3.13614798 0.41877240 -0.19361244
2.50551224 0.56594759 0.72846514
3.81448412 1.12589931 0.79121095
3.78277373 -1.09137058 0.42036507
3.52737665 -1.57130921 0.50790513
3.64990950 -1.03222120 0.57658058
3.72263479 -1.26294661 0.61915249
3.64316082 1.76063609 -0.20509014
2.43516326 0.44103435 0.46313998
2.82770896 0.43080297 -0.03106155
3.92535114 1.17280400 0.65259814
2.46071696 0.40388504 0.40390193
3.55203032 -1.59626138 0.42193326
2.44516134 0.27383703 0.57219392
2.42539310 0.10697908 0.63380516
2.44980001 0.29193401 0.58026439
3.24739218 1.71715713 0.06838391
3.56968927 -1.47008300 0.51023626
2.19433546 1.43844891 -0.80331743
2.40234137 0.12317520 0.80394459
2.53786945 0.50437850 0.67517233
2.45501852 0.27102521 0.58709234
3.68256998 -1.57731354 0.62765431
2.07618189 1.39778888 -0.77421075
3.85396576 1.40564048 0.94810379
2.83874369 0.43327934 -0.02934919
2.37621450 0.39738145 0.68624657
2.37085819 0.36048907 0.67999387
2.40403318 0.17086363 0.56577623
3.93484545 1.23108590 0.55112267
3.24168253 0.35277337 -0.44949478
2.61833668 0.42970151 0.23363127
3.91488075 1.32902801 0.85725027
2.63049078 0.44529688 0.23683386
3.66516256 -1.01264870 0.57997596
2.64341259 0.22838615 0.16429180
3.95406365 -1.36533856 0.15133628
2.60400772 0.13807158 0.36243004
2.43785310 0.26259992 0.68255979
3.69378996 -1.31225061 0.61010343
2.44748664 0.24610509 0.69058138
2.76575160 0.17080306 0.04172029
2.43254352 0.07912366 0.69258106
2.41287804 0.20646229 0.45077747
2.56903577 0.21301688 0.28572476
2.58806944 0.28766072 0.23008183
2.38867950 0.41248339 0.67021412
2.72535443 0.36928758 0.03966899
3.02129841 0.40316963 -0.10836184
2.43056536 0.09067257 0.75200748
2.12104702 1.47544253 -0.59860128
2.55778193 0.17722180 0.34644100
2.95255589 0.23686898 -0.19098023
2.78717279 0.18110272 -0.03273677
2.91589403 1.75787866 -0.03053176
2.41777754 0.13154498 0.75150114
3.27328777 0.37524122 -0.46084994
2.20505118 1.45456851 -0.79552770
2.40625882 0.15238385 0.50687897
3.01557541 0.38509235 -0.11328359
3.16813421 0.24558134 -0.50232959
2.41575480 0.14485380 0.51935714
2.40055561 0.22304919 0.45668444
3.26381803 0.42550498 -0.35300809
3.29758310 0.39730588 -0.44795388
2.67836046 0.11441299 0.24096815
2.43143106 0.08788392 0.63299888
2.52289915 0.35179162 0.34593838
3.18350410 0.25466478 -0.50883079
3.12878323 0.19910270 -0.34806684
3.70557070 -1.05771208 0.51333869
3.73973560 -1.31287205 0.52391398
3.95899296 1.23418081 0.85453874
3.29151607 0.46757132 -0.29587361
2.42240953 0.33813393 0.45421019
2.40289307 0.20377442 0.44449899
1.86883783 1.20820987 -0.40079114
2.52903533 0.37087995 0.34412909
2.43827105 0.25875121 0.39435822
2.52841067 0.38731900 0.34530082
2.41663933 0.13238715 0.57194191
2.06748629 1.38653004 -0.67111254
2.51677608 0.33604699 0.34627435
2.42899036 0.39869076 0.45840827
3.22983289 0.26177827 -0.56725532
2.41040158 0.36280057 0.51181591
2.42101240 0.38014656 0.51348275
3.31080508 0.41068605 -0.44332823
2.73278713 0.24664184 -0.03375401
2.46040058 0.18488809 0.40031600
2.43465924 0.24905124 0.39850762
2.99219012 0.21808222 -0.25111488
2.43547916 0.06803825 0.63317907
2.55989051 0.13344258 0.40156606
3.92754412 -1.55369270 0.12625697
2.41899872 0.27870142 0.68825179
2.95527244 0.17514236 -0.17315951
2.77115560 0.35141289 -0.02402991
2.64784884 0.36791059 0.16311327
2.48896646 0.55124629 0.53501213
2.40285969 0.11274756 0.80335826
2.67608619 0.41250408 0.15943760
2.56895757 0.16782176 0.36011252
2.43648982 0.06857357 0.69564468
3.85337639 -1.13960731 0.34240016
2.41824055 0.23118648 0.56715137
2.47748756 0.52176720 0.58892560
3.32864165 0.27566433 -0.59402621
3.12906027 0.39765137 -0.19173433
2.50530481 0.56626463 0.84731370
2.44816017 0.45839012 0.46396723
2.68995643 0.15634155 0.11065555
2.41229653 0.31090382 0.57299548
2.08002710 1.40403974 -0.56714225
3.89052820 1.09125590 0.79890120
2.41764855 0.21192196 0.56495321
2.60113549 0.21756160 0.22676182
2.69626355 0.12242752 0.17288817
1.89160097 1.18526256 -0.40905240
2.77108669 0.18572104 -0.03114464
2.05459261 1.40434182 -0.45131022
2.50564742 0.56149828 0.79617196
2.38685751 0.11388355 0.85674584
3.76532912 -1.11207914 0.42137000
2.50735259 0.47561103 0.41435853
2.50653839 0.56539738 0.89490741
2.69098663 0.44844508 0.16512461
2.42583728 0.16176748 0.64192033
3.63742280 -1.06709051 0.58435190
3.31005239 0.44892138 -0.36141109
2.47357488 0.47277308 0.59021080
2.44751883 0.45405534 0.52334058
2.50624132 0.54269576 0.66830897
3.16528440 0.26469138 -0.49829239
2.59852600 0.24000643 0.22386841
2.89799809 0.27104503 -0.10738876
2.67116356 0.31562483 0.10023360
2.44027019 0.41862521 0.51987529
2.58530664 0.26795813 0.22896270
2.51504087 0.52618819 0.66968107
2.68961358 0.23634639 0.04092766
3.28841972 0.37760323 -0.44837320
2.66348624 0.28764167 0.09913182
2.43408108 0.18354228 0.64186329
2.65596437 0.20914011 0.10660198
2.42866135 0.39716700 0.51759088
